ncols         400
nrows         36
xllcorner     -21.0414871364
yllcorner     32.6060032569
cellsize      0.083333337679505
NODATA_value  -9999
-9999 -9999 -9999 -9999 -9999 -9999 -9999 -9999 -9999 -9999 -9999 -9999 -9999 -9999 -9999 -9999 -9999 -9999 -9999 -9999 -9999 -9999 -9999 -9999 -9999 -9999 -9999 -9999 -9999 -9999 -9999 -9999 -9999 -9999 -9999 -9999 -9999 -9999 -9999 -9999 -9999 -9999 -9999 -9999 -9999 -9999 -9999 -9999 -9999 -9999 -9999 -9999 -9999 -9999 -9999 -9999 -9999 -9999 -9999 -9999 -9999 -9999 -9999 -9999 -9999 -9999 -9999 -9999 -9999 -9999 -9999 -9999 -9999 -9999 -9999 -9999 -9999 -9999 -9999 -9999 -9999 -9999 -9999 -9999 -9999 -9999 -9999 -9999 -9999 -9999 -9999 -9999 -9999 -9999 -9999 -9999 -9999 -9999 -9999 -9999 -9999 -9999 -9999 -9999 -9999 -9999 -9999 -9999 -9999 -9999 -9999 -9999 -9999 -9999 -9999 -9999 -9999 -9999 -9999 -9999 -9999 -9999 -9999 -9999 -9999 -9999 -9999 -9999 -9999 -9999 -9999 -9999 -9999 -9999 -9999 -9999 -9999 -9999 -9999 -9999 -9999 -9999 -9999 -9999 -9999 -9999 -9999 -9999 -9999 -9999 -9999 -9999 -9999 -9999 -9999 -9999 -9999 -9999 -9999 -9999 -9999 -9999 -9999 -9999 -9999 -9999 -9999 -9999 -9999 -9999 -9999 -9999 -9999 -9999 -9999 -9999 -9999 -9999 -9999 -9999 27 61.21 172.33 154.43 245.14 297.16 145.44 288.64 147.96 65.95 -9999 -9999 -9999 -9999 -9999 -9999 -9999 -9999 -9999 -9999 -9999 -9999 -9999 -9999 -9999 -9999 -9999 -9999 -9999 -9999 -9999 -9999 -9999 -9999 -9999 -9999 -9999 -9999 -9999 -9999 -9999 -9999 -9999 -9999 -9999 -9999 -9999 -9999 -9999 -9999 -9999 -9999 -9999 -9999 -9999 -9999 -9999 -9999 192.08 177.73 119.05 85.54 81.27 81.22 87.4 108.75 145.68 204.69 174.77 79.58 88.39 201.43 147.31 332.98 441.51 670.37 693.09 420.09 316.95 228.81 382.11 514.38 635.8 663.11 693.19 654.99 561.31 625.48 762.72 780.73 872.99 827.17 883.51 869.69 853.9 840.3 848.05 842.84 821.79 795.32 749.7 709.1 667.4 663 657.65 640.23 641.93 660.89 656.5 678.44 703.09 716.47 727.99 731.75 726.98 723.99 696.13 638.65 626.23 595.7 580.22 508.14 440.79 416.07 411.61 403.78 399.9 399.83 400.84 406.88 416.41 442.96 464.25 485.22 531.62 600.23 728.05 692.31 670.71 824.17 1131.77 1430.25 1642.33 1554.29 1338.01 1148.54 1125.01 1176.79 1180.92 1073.78 999.13 1009.24 926.75 886.77 872.94 872.74 863.19 871.63 890.3 939.93 1027.98 1084.18 955.9 950.98 1117.52 1128.4 931.04 887.15 771.94 1076.32 1166.21 1042.39 931.8 875.48 862.15 971.55 1030.57 941.25 974.97 950.48 713.27 583.26 563.01 518.2 487.31 481.91 489.27 410 243.41 189.37 153.93 123.3 103.84 84.32 59.66 37.6 30.01 30.94 76.45 66.9 107.83 77.61 2643.57 33422.22 -9999 -9999 -9999 -9999 -9999 -9999 -9999 -9999 -9999 -9999 -9999 -9999 -9999 -9999 -9999 -9999
-9999 -9999 -9999 -9999 -9999 -9999 -9999 -9999 -9999 -9999 -9999 -9999 -9999 -9999 -9999 -9999 -9999 -9999 -9999 -9999 -9999 -9999 -9999 -9999 -9999 -9999 -9999 -9999 -9999 -9999 -9999 -9999 -9999 -9999 -9999 -9999 -9999 -9999 -9999 -9999 -9999 -9999 -9999 -9999 -9999 -9999 -9999 -9999 -9999 -9999 -9999 -9999 -9999 -9999 -9999 -9999 -9999 -9999 -9999 -9999 -9999 -9999 -9999 -9999 -9999 -9999 -9999 -9999 -9999 -9999 -9999 -9999 -9999 -9999 -9999 -9999 -9999 -9999 -9999 -9999 -9999 -9999 -9999 -9999 -9999 -9999 -9999 -9999 -9999 -9999 -9999 -9999 -9999 -9999 -9999 -9999 -9999 -9999 -9999 -9999 -9999 -9999 -9999 -9999 -9999 -9999 -9999 -9999 -9999 -9999 -9999 -9999 -9999 -9999 -9999 -9999 -9999 -9999 -9999 -9999 -9999 -9999 -9999 -9999 -9999 -9999 -9999 -9999 -9999 -9999 -9999 -9999 -9999 -9999 -9999 -9999 -9999 -9999 -9999 -9999 -9999 -9999 -9999 -9999 -9999 -9999 -9999 -9999 -9999 -9999 -9999 -9999 -9999 -9999 -9999 -9999 -9999 -9999 -9999 -9999 -9999 -9999 -9999 -9999 -9999 -9999 -9999 -9999 -9999 -9999 -9999 -9999 -9999 -9999 -9999 -9999 -9999 -9999 -9999 24.34 44.57 67.28 205.15 410.77 564.13 297.15 358.87 577.57 517.56 462.96 111.25 -9999 -9999 -9999 -9999 -9999 -9999 -9999 -9999 -9999 -9999 -9999 -9999 -9999 -9999 -9999 -9999 -9999 -9999 -9999 -9999 -9999 -9999 -9999 -9999 -9999 -9999 -9999 -9999 -9999 -9999 -9999 -9999 -9999 -9999 -9999 -9999 -9999 -9999 -9999 -9999 -9999 -9999 -9999 -9999 -9999 -9999 42.76 99.63 121.07 92.09 88.66 99.19 107.51 205.4 332 409.66 366.98 410.95 301.51 374.63 284.84 328.02 531.34 641.48 605.41 560.53 442.26 362.56 320.26 293.46 346.81 437.57 601.78 719.77 654.58 684.84 821.43 883.93 869.25 884.45 915.4 916.42 899.79 870.94 846.7 831.66 816.94 796.92 774.73 738.96 696.9 690.83 699 703.14 676.44 677.91 692.71 694.88 691.41 704.09 734.03 787.57 819.6 820.09 830.57 764.35 686.53 679.69 672.42 661.24 544.02 429.04 400.98 399.93 395.24 391.31 390.25 391.38 391.12 390.65 395.42 409.52 428.15 460.93 494.55 546.94 567.11 679.55 951.78 1222 1270.67 1236.88 1126.49 1154.45 1420.62 1512.44 1403.66 1309.6 1146.83 1099.38 1076.9 1046.76 1120.15 1156.06 1023.12 1087.24 1069.72 1059.34 1155.54 1192.33 1001.85 973.37 1095.67 1216.93 1175.93 981.84 900.4 799.02 893.38 990.9 1020.76 971.95 917.73 958.18 1093.13 1009 962 913.95 926.54 910.15 645.62 647.18 646.69 451.97 409.37 342.72 336.54 349.35 210.74 164.88 137.13 113.1 101.78 92.59 58.96 47.31 33.86 31.14 64.9 87.3 71.66 36.96 664.42 -9999 -9999 -9999 -9999 -9999 -9999 -9999 -9999 -9999 -9999 -9999 -9999 -9999 -9999 -9999 -9999
-9999 -9999 -9999 -9999 -9999 -9999 -9999 -9999 -9999 -9999 -9999 -9999 -9999 -9999 -9999 -9999 -9999 -9999 -9999 -9999 -9999 -9999 -9999 -9999 -9999 -9999 -9999 -9999 -9999 -9999 -9999 -9999 -9999 -9999 -9999 -9999 -9999 -9999 -9999 -9999 -9999 -9999 -9999 -9999 -9999 -9999 -9999 -9999 -9999 -9999 -9999 -9999 -9999 -9999 -9999 -9999 -9999 -9999 -9999 -9999 -9999 -9999 -9999 -9999 -9999 -9999 -9999 -9999 -9999 -9999 -9999 -9999 -9999 -9999 -9999 -9999 -9999 -9999 -9999 -9999 -9999 -9999 -9999 -9999 -9999 -9999 -9999 -9999 -9999 -9999 -9999 -9999 -9999 -9999 -9999 -9999 -9999 -9999 -9999 -9999 -9999 -9999 -9999 -9999 -9999 -9999 -9999 -9999 -9999 -9999 -9999 -9999 -9999 -9999 -9999 -9999 -9999 -9999 -9999 -9999 -9999 -9999 -9999 -9999 -9999 -9999 -9999 -9999 -9999 -9999 -9999 -9999 -9999 -9999 -9999 -9999 -9999 -9999 -9999 -9999 -9999 -9999 -9999 -9999 -9999 -9999 -9999 -9999 -9999 -9999 -9999 -9999 -9999 -9999 -9999 -9999 -9999 -9999 -9999 -9999 -9999 -9999 -9999 -9999 -9999 -9999 -9999 -9999 -9999 -9999 -9999 -9999 -9999 -9999 -9999 -9999 -9999 -9999 -9999 97.97 98.78 78.29 161.84 238.2 481.49 594.45 493.02 591.67 1031.41 452.02 259.99 219.86 -9999 -9999 -9999 -9999 -9999 -9999 -9999 -9999 -9999 -9999 -9999 -9999 -9999 -9999 -9999 -9999 -9999 -9999 -9999 -9999 -9999 -9999 -9999 -9999 -9999 -9999 -9999 -9999 -9999 -9999 -9999 -9999 -9999 -9999 -9999 -9999 -9999 -9999 -9999 -9999 -9999 -9999 -9999 -9999 -9999 90.59 112.81 131.06 153.52 193.57 185.4 327.76 553.65 556.58 541.63 471.87 328.5 451.85 534.77 290.18 518.27 529.06 504.8 493.47 510.12 507.15 544.92 521.86 519.54 483.18 548.58 562.18 624.13 796.59 907.59 1005.93 989.64 967.87 949.5 939.99 920.48 897.05 871.59 880.89 830.56 810.23 792.36 766.18 727.21 706.97 760.56 772.16 771.28 735.05 735.78 720.17 706.04 711.92 739.02 779.14 835.34 958.9 967.95 869.47 799.08 774.43 824.8 809.65 901.17 614.57 442.9 419.89 405.56 397.42 395.5 391.82 393.43 395.7 400.08 386.13 392.61 403.21 420.16 444.28 484.79 547.01 616.89 707.35 855.06 959.11 946.21 990.95 1110.25 1538.77 1734.22 1856.29 1634.44 1575.14 1436.63 1394 1508.36 1296.2 1363.22 1501.47 1463.3 1202.65 1134.26 1078.61 1085.24 1057.78 1097.15 1183.26 1133.44 1155.9 1194.82 1300.62 1198.12 1078.88 947.44 1025.15 993.58 891.32 755.41 777.15 860.75 983.07 975.46 854.96 720.4 703.69 804.6 554.5 408.94 356.2 358.15 313.94 270.37 235.86 141.26 130.1 114.65 119.54 99.01 58.74 56 58.58 41.8 111.57 99.64 64.11 63.35 37.15 -9999 -9999 -9999 -9999 -9999 -9999 -9999 -9999 -9999 -9999 -9999 -9999 -9999 -9999 -9999 -9999
-9999 -9999 -9999 -9999 -9999 -9999 -9999 -9999 -9999 -9999 -9999 -9999 -9999 -9999 -9999 -9999 -9999 -9999 -9999 -9999 -9999 -9999 -9999 -9999 -9999 -9999 -9999 -9999 -9999 -9999 -9999 -9999 -9999 -9999 -9999 -9999 -9999 -9999 -9999 -9999 -9999 -9999 -9999 -9999 -9999 -9999 -9999 -9999 -9999 -9999 -9999 -9999 -9999 -9999 -9999 -9999 -9999 -9999 -9999 -9999 -9999 -9999 -9999 -9999 -9999 -9999 -9999 -9999 -9999 -9999 -9999 -9999 -9999 -9999 -9999 -9999 -9999 -9999 -9999 -9999 -9999 -9999 -9999 -9999 -9999 -9999 -9999 -9999 -9999 -9999 -9999 -9999 -9999 -9999 -9999 -9999 -9999 -9999 -9999 -9999 -9999 -9999 -9999 -9999 -9999 -9999 -9999 -9999 -9999 -9999 -9999 -9999 -9999 -9999 -9999 -9999 -9999 -9999 -9999 -9999 -9999 -9999 -9999 -9999 -9999 -9999 -9999 -9999 -9999 -9999 -9999 -9999 -9999 -9999 -9999 -9999 -9999 -9999 -9999 -9999 -9999 -9999 -9999 -9999 -9999 -9999 -9999 -9999 -9999 -9999 -9999 -9999 -9999 -9999 -9999 -9999 -9999 -9999 -9999 -9999 -9999 -9999 -9999 -9999 -9999 -9999 -9999 -9999 -9999 -9999 -9999 -9999 -9999 -9999 -9999 -9999 -9999 -9999 -9999 140.55 93.44 131.24 251.42 266.57 269.17 781.13 883.35 682.59 964.61 528.31 1089.17 612.13 271.08 238.74 -9999 -9999 -9999 -9999 -9999 -9999 -9999 -9999 -9999 -9999 -9999 -9999 -9999 -9999 -9999 -9999 -9999 -9999 -9999 -9999 -9999 126.75 82.42 -9999 -9999 -9999 -9999 -9999 -9999 -9999 -9999 -9999 -9999 -9999 -9999 -9999 -9999 -9999 -9999 -9999 50.7 137.91 186.55 245.69 258.63 264.68 271.04 393.83 583.05 521.93 479.49 419.42 422.02 450.21 553.79 610.98 431.48 378.85 488.78 487.54 516.96 675.21 781.2 749.77 762.68 562.28 665 784.41 685.64 892.91 816.42 772.95 845.57 947.23 989.67 1003.31 1010.46 986.96 956.36 943.33 905.58 871.19 833.45 807.21 789.12 764.27 782.02 798.47 728.93 743.58 785.45 781.02 783.72 763.74 762.55 761.32 807.46 885.02 1005.79 945.73 795.93 759.94 756.69 796.86 915.37 910.64 756.99 733.79 499.35 460.61 444.13 452.79 486.2 507.04 446.3 426.21 434.55 410.72 449.62 397.7 408.33 429.85 474.93 620.74 783.76 977.1 901.43 812.84 897.8 1127.28 1333.56 1456.79 1524.88 1644.75 1502.32 1493.41 1568.73 1713.18 1329.46 1190.85 1463.49 1290.17 1202.91 1159.16 1115.78 1226.29 1229.29 1179.35 1172.33 1195.28 1109.27 1145.9 1299 1381.83 1246.72 1153.12 1111.44 1154.64 1119.2 982.44 843.51 740.7 733.02 1057.99 958.45 733.36 634.73 685.34 568.76 434.73 387.13 374.87 352.48 318.03 356.21 296.51 171.22 131.73 106.27 106.26 74.17 58.72 98.25 140.85 105.02 102.84 110.23 102.18 63.76 21.87 6.57 -9999 -9999 -9999 -9999 -9999 -9999 -9999 -9999 -9999 -9999 -9999 -9999 -9999 -9999 -9999
-9999 -9999 -9999 -9999 -9999 -9999 -9999 -9999 -9999 -9999 -9999 -9999 -9999 -9999 -9999 -9999 -9999 -9999 -9999 -9999 -9999 -9999 -9999 -9999 -9999 -9999 -9999 -9999 -9999 -9999 -9999 -9999 -9999 -9999 -9999 -9999 -9999 -9999 -9999 -9999 -9999 -9999 -9999 -9999 -9999 -9999 -9999 -9999 -9999 -9999 -9999 -9999 -9999 -9999 -9999 -9999 -9999 -9999 -9999 -9999 -9999 -9999 -9999 -9999 -9999 -9999 -9999 -9999 -9999 -9999 -9999 -9999 -9999 -9999 -9999 -9999 -9999 -9999 -9999 -9999 -9999 -9999 -9999 -9999 -9999 -9999 -9999 -9999 -9999 -9999 -9999 -9999 -9999 -9999 -9999 -9999 -9999 -9999 -9999 -9999 -9999 -9999 -9999 -9999 -9999 -9999 -9999 -9999 -9999 -9999 -9999 -9999 -9999 -9999 -9999 -9999 -9999 -9999 -9999 -9999 -9999 -9999 -9999 -9999 -9999 -9999 -9999 -9999 -9999 -9999 -9999 -9999 -9999 -9999 -9999 -9999 -9999 -9999 -9999 -9999 -9999 -9999 -9999 -9999 -9999 -9999 -9999 -9999 -9999 -9999 -9999 -9999 -9999 -9999 -9999 -9999 -9999 -9999 -9999 -9999 -9999 -9999 -9999 -9999 -9999 -9999 -9999 -9999 -9999 -9999 -9999 -9999 -9999 -9999 -9999 -9999 -9999 -9999 30.82 66.23 47.99 85.46 169.92 559.78 371.1 712.51 973.18 758.59 464.85 1044.11 1207.64 937.06 524.55 690.19 366.65 184.93 -9999 -9999 -9999 -9999 -9999 -9999 -9999 206.77 230.08 23.41 47.95 378.97 162.13 65.04 -9999 -9999 -9999 119.1 139.64 341.73 236 -9999 -9999 -9999 -9999 -9999 -9999 -9999 -9999 -9999 -9999 -9999 -9999 -9999 -9999 -9999 86.38 235.07 108.58 161.77 308.93 443.94 511.4 485.98 471.51 580.8 536.13 496.53 470.69 492.03 531.46 634.68 608.76 508.28 384.87 431.84 494.48 512.23 580.46 785.55 968.12 912.13 625.84 564.73 632.98 857.25 688.07 989.32 1006.87 931.14 1016.35 989.22 1051.55 1085.36 1085.29 1032.98 1050.32 1101.34 1097.97 956.11 856.94 832.25 862 923.41 856.01 793.07 740.25 760.28 787.88 815.12 838.59 831.08 851.65 932.13 959.8 893.32 806.31 760.9 753.39 766.21 780.61 807.1 851.49 806.47 763.06 697.93 593.57 555.81 553.71 582.97 608.28 566.5 508.99 487.77 482.69 482.12 489.2 413.58 410.07 484.19 515.23 600.06 623.45 644.34 602.48 899.52 1289.14 1353.6 1166.93 1415.83 1488.15 1274.56 1425.82 1561.85 1415.75 1493.11 1350.69 1088.02 1069.87 1025.21 998.33 1089.51 1300.7 1383.27 1208.41 1083.66 1170.8 1164.38 1095.54 1139.87 1196.83 1148.5 1142.26 1099.45 1072.16 1193.61 1179.85 1119.24 1069.96 1022.33 959.55 657.53 655.44 672.75 624.94 530.84 454.63 397.39 348.1 315.41 337.48 362.86 360.35 249.57 220.32 136.34 97.34 121.42 112.11 116.11 133.62 118.03 102.46 77.77 71.33 64 40.79 29.38 1322.65 -9999 -9999 -9999 -9999 -9999 -9999 -9999 -9999 -9999 -9999 -9999 -9999 -9999 -9999 -9999
-9999 -9999 -9999 -9999 -9999 -9999 -9999 -9999 -9999 -9999 -9999 -9999 -9999 -9999 -9999 -9999 -9999 -9999 -9999 -9999 -9999 -9999 -9999 -9999 -9999 -9999 -9999 -9999 -9999 -9999 -9999 -9999 -9999 -9999 -9999 -9999 -9999 -9999 -9999 -9999 -9999 -9999 -9999 -9999 -9999 -9999 -9999 -9999 -9999 -9999 -9999 -9999 -9999 -9999 -9999 -9999 -9999 -9999 -9999 -9999 -9999 -9999 -9999 -9999 -9999 -9999 -9999 -9999 -9999 -9999 -9999 -9999 -9999 -9999 -9999 -9999 -9999 -9999 -9999 -9999 -9999 -9999 -9999 -9999 -9999 -9999 -9999 -9999 -9999 -9999 -9999 -9999 -9999 -9999 -9999 -9999 -9999 -9999 -9999 -9999 -9999 -9999 -9999 -9999 -9999 -9999 -9999 -9999 -9999 -9999 -9999 -9999 -9999 -9999 -9999 -9999 -9999 -9999 -9999 -9999 -9999 -9999 -9999 -9999 -9999 -9999 -9999 -9999 -9999 -9999 -9999 -9999 -9999 -9999 -9999 -9999 -9999 -9999 -9999 -9999 -9999 -9999 -9999 -9999 -9999 -9999 -9999 -9999 -9999 -9999 -9999 -9999 -9999 -9999 -9999 -9999 -9999 -9999 -9999 -9999 -9999 -9999 -9999 -9999 -9999 -9999 -9999 -9999 -9999 -9999 -9999 -9999 -9999 -9999 -9999 -9999 -9999 -9999 29.16 6.03 18.42 48.68 201.6 358.31 513.85 277.64 493.63 927.64 496.58 1085.96 1508.33 1214.44 797.72 896.61 950.46 562.51 572.04 515.65 323.79 201.02 212.25 322.36 398.66 367.39 272.62 159.07 182.81 596.52 310.73 517.55 625.39 433.23 214.5 143.07 154.11 261.15 79.84 8.8 4.25 6.39 -9999 -9999 -9999 -9999 -9999 -9999 -9999 -9999 -9999 -9999 -9999 382.62 430.39 254.39 143.87 333.62 311.26 455.25 446.76 473.16 623.72 671.93 567.31 520.99 538.65 566.35 610.67 620.73 479.41 449.18 434.78 460.48 494.17 528.53 641.11 736.4 768.07 879.26 760.2 645.91 682.08 808.54 771.28 801.28 1045.24 1071.66 1113.36 1073.68 1155.38 1192.63 1158.75 1217.33 1276.17 1308 1213.77 985.83 899.21 892.65 949.76 900.93 813.23 769.92 779.38 793.7 813.82 848.21 921.61 925.95 957.56 916.51 889.54 814.23 761.59 761.5 822.07 930.31 924.98 984.8 907.73 927.13 918.3 866.2 876.81 756.39 788.8 777.53 705.3 608.32 544.63 567.66 656.32 636.34 533.42 455.97 448.79 564.45 534.02 489.19 431.15 419.35 550.6 718.91 942.41 986.54 1277.5 1223.35 1018.84 1068.64 1537.85 1232.76 1221.49 1312.88 1316.33 1088.71 922.28 936.44 1110.59 1223.56 1327.07 1240.53 1064.36 1091.54 1030.11 1047.06 1069.84 1055.98 1164.51 1227.01 1284.79 1172.01 1008 1101.79 1133.39 1098.83 1001.48 1016.37 817.16 753.97 861.55 816.31 581.28 555.19 463.65 411.53 347.43 320.85 374.82 360.59 333.3 224.91 219.17 154.64 127.66 178.68 172.91 176.91 116.54 68.7 73.4 101.32 67.7 49.05 61.09 32.96 -9999 -9999 -9999 -9999 -9999 -9999 -9999 -9999 -9999 -9999 -9999 -9999 -9999 -9999 -9999 -9999
-9999 -9999 -9999 -9999 -9999 -9999 -9999 -9999 -9999 -9999 -9999 -9999 -9999 -9999 -9999 -9999 -9999 -9999 -9999 -9999 -9999 -9999 -9999 -9999 -9999 -9999 -9999 -9999 -9999 -9999 -9999 -9999 -9999 -9999 -9999 -9999 -9999 -9999 -9999 -9999 -9999 -9999 -9999 -9999 -9999 -9999 -9999 -9999 -9999 -9999 -9999 -9999 -9999 -9999 -9999 -9999 -9999 -9999 -9999 -9999 -9999 -9999 -9999 -9999 -9999 -9999 -9999 -9999 -9999 -9999 -9999 -9999 -9999 -9999 -9999 -9999 -9999 -9999 -9999 -9999 -9999 -9999 -9999 -9999 -9999 -9999 -9999 -9999 -9999 -9999 -9999 -9999 -9999 -9999 -9999 -9999 -9999 -9999 -9999 -9999 -9999 -9999 -9999 -9999 -9999 -9999 -9999 -9999 -9999 -9999 -9999 -9999 -9999 -9999 -9999 -9999 -9999 -9999 -9999 -9999 -9999 -9999 -9999 -9999 -9999 -9999 -9999 -9999 -9999 -9999 -9999 -9999 -9999 -9999 -9999 -9999 -9999 -9999 -9999 -9999 -9999 -9999 -9999 -9999 -9999 -9999 -9999 -9999 -9999 -9999 -9999 -9999 -9999 -9999 -9999 -9999 -9999 -9999 -9999 -9999 -9999 -9999 -9999 -9999 -9999 -9999 -9999 -9999 -9999 -9999 -9999 -9999 -9999 -9999 -9999 -9999 -9999 40.36 75.69 44.26 15.16 48.62 126.13 375.09 247.71 250.91 302.47 334.64 629.22 986.43 758.95 1010.61 1315.64 1123.57 856.7 1039.15 582.62 1047.58 684.13 697.01 578.51 666.2 685.29 483.6 494.8 557.02 570.75 824.05 792.51 641.62 432.38 335.04 245.5 172.94 193.6 212.96 125.75 98.89 149.92 214.59 319.48 303.79 132.26 55.98 88.04 100.72 179.55 202.47 213.5 237.03 216.02 469.99 340.09 190.66 184.18 246.39 302.31 395.57 519.44 461.14 606.4 632.82 600.8 604.21 685.49 697.36 655.07 564.84 585.34 649.75 550.43 583.63 565.85 718.72 746.55 783.15 806.07 907.55 884.74 768.53 782.59 841.04 923.35 862.23 973.68 1181.26 1192.88 1151.67 1185.11 1244.49 1262.63 1317.46 1314.46 1317.85 1228.38 1116.43 992.21 920.07 904.72 852.34 814.08 784.21 804.9 881.88 903.48 926.78 895.73 862.68 858.3 875.38 892.82 808.95 835.67 1034.19 1165.14 1062.16 1080.04 1064.14 1000.56 1015.61 1025.15 1185.98 1209.22 1156.54 1108.75 1015.3 780.57 656.02 587.35 624.98 691.43 654.24 616.54 478.43 406.53 416.48 357.71 267.36 272.61 316.86 367.68 475.46 805.12 826.56 688.36 756.89 1142.28 1467.21 1360.19 1090.73 1095.21 1293.58 962.48 825.56 1149.88 1275.85 1138.12 1217.1 1253.65 1074.38 1151.14 1235.79 1051.1 1089.65 964.85 1021.46 1053.21 1078.23 1104.29 1060.58 990.91 956.43 930.24 896.4 861.89 837.85 811 846.16 866.12 697.14 639.84 512.3 442.25 394.1 361.25 342.2 325.68 321 258.23 263.54 315.63 206.93 159.59 145.32 121.86 121.16 110.48 100.63 102.72 114.29 105.81 86.19 47.53 17.58 -9999 -9999 -9999 -9999 -9999 -9999 -9999 -9999 -9999 -9999 -9999 -9999 -9999 -9999 -9999 -9999
-9999 -9999 -9999 -9999 -9999 -9999 -9999 -9999 -9999 -9999 -9999 -9999 -9999 -9999 -9999 -9999 -9999 -9999 -9999 -9999 -9999 -9999 -9999 -9999 -9999 -9999 -9999 -9999 -9999 -9999 -9999 -9999 -9999 -9999 -9999 -9999 -9999 -9999 -9999 -9999 -9999 -9999 -9999 -9999 -9999 -9999 -9999 -9999 -9999 -9999 -9999 -9999 -9999 -9999 -9999 -9999 -9999 -9999 -9999 -9999 -9999 -9999 -9999 -9999 -9999 -9999 -9999 -9999 -9999 -9999 -9999 -9999 -9999 -9999 -9999 -9999 -9999 -9999 -9999 -9999 -9999 -9999 -9999 -9999 -9999 -9999 -9999 -9999 -9999 -9999 -9999 -9999 -9999 -9999 -9999 -9999 -9999 -9999 -9999 -9999 -9999 -9999 -9999 -9999 -9999 -9999 -9999 -9999 -9999 -9999 -9999 -9999 -9999 -9999 -9999 -9999 -9999 -9999 -9999 -9999 -9999 -9999 -9999 -9999 -9999 -9999 -9999 -9999 -9999 -9999 -9999 -9999 -9999 -9999 -9999 -9999 -9999 -9999 -9999 -9999 -9999 -9999 -9999 -9999 -9999 -9999 -9999 -9999 -9999 -9999 -9999 -9999 -9999 -9999 -9999 -9999 -9999 -9999 -9999 -9999 -9999 -9999 -9999 -9999 -9999 -9999 -9999 -9999 -9999 -9999 -9999 -9999 -9999 -9999 -9999 -9999 -9999 56.09 95.15 99.83 51.91 65.4 135.53 101.33 216.19 233.54 331.69 565.66 540.64 914.26 933.16 558.4 760.71 834.67 1059.65 1335.05 1301.04 1142.41 1371.61 1239.6 1102.81 922.85 958.32 1274.61 1179.16 761.41 652.46 1174.26 830.64 431.12 341.8 339.94 303.95 289.99 238.4 201.19 234.75 247.8 275.42 304.08 197.35 97.81 63.07 95.31 145.58 179.63 230.29 369.61 426.51 476.68 629.67 600.16 319.97 295.76 301.45 401.25 463.99 657.84 719.77 561.95 677.05 705.27 733.05 731.32 812.08 678.45 823.32 756.62 689.01 635.93 597.53 727.12 847.82 783.88 745.12 939.29 960.1 1026.28 1052.64 966.34 885.73 868.73 960.03 1065.62 1077.86 1175.71 1158.51 1125.41 1147.66 1173.32 1193.26 1232.66 1222.97 1231.16 1211.1 1203.78 1106.51 1001.55 894.2 841.37 825.3 855.97 883.93 871.32 859.43 838.32 832.18 840 852.17 851.8 862.42 932.3 1113.64 1129.73 1071.09 1077.39 1118.43 1012.85 1008.07 1115.91 1131.58 1124.5 1193.94 1059.63 967.73 865.21 800.95 649.32 639.28 725.1 722.46 609.16 497.22 446.84 323.54 227.14 206.41 192.18 204.78 211.46 230.95 268.76 396.09 382.83 626.31 1040.87 1152.53 920.43 841.71 948.12 786.41 756.17 580.14 975.52 1425.24 1282.29 1001.44 1077.28 1013.1 1079.64 1193.79 1163.09 994.44 1043.29 931.06 959.85 1013.41 1036.38 1122.5 1010.52 915 970.15 886.4 823.78 808.97 780.77 781.55 765.67 670.06 624.69 622.96 525.98 434.43 400.96 463.38 424.45 375.42 379.32 337.22 319.25 216.36 155.24 125.82 155.53 151.9 146.64 116.24 112.78 134.33 135.84 119.92 62.2 18.32 -9999 -9999 -9999 -9999 -9999 -9999 -9999 -9999 -9999 -9999 -9999 -9999 -9999 -9999 -9999 -9999 -9999
-9999 -9999 -9999 -9999 -9999 -9999 -9999 -9999 -9999 -9999 -9999 -9999 -9999 -9999 -9999 -9999 -9999 -9999 -9999 -9999 -9999 -9999 -9999 -9999 -9999 -9999 -9999 -9999 -9999 -9999 -9999 -9999 -9999 -9999 -9999 -9999 -9999 -9999 -9999 -9999 -9999 -9999 -9999 -9999 -9999 -9999 -9999 -9999 -9999 -9999 -9999 -9999 -9999 -9999 -9999 -9999 -9999 -9999 -9999 -9999 -9999 -9999 -9999 -9999 -9999 -9999 -9999 -9999 -9999 -9999 -9999 -9999 -9999 -9999 -9999 -9999 -9999 -9999 -9999 -9999 -9999 -9999 -9999 -9999 -9999 -9999 -9999 -9999 -9999 -9999 -9999 -9999 -9999 -9999 -9999 -9999 -9999 -9999 -9999 -9999 -9999 -9999 -9999 -9999 -9999 -9999 -9999 -9999 -9999 -9999 -9999 -9999 -9999 -9999 -9999 -9999 -9999 -9999 -9999 -9999 -9999 -9999 -9999 -9999 -9999 -9999 -9999 -9999 -9999 -9999 -9999 -9999 -9999 -9999 -9999 -9999 -9999 -9999 -9999 -9999 -9999 -9999 -9999 -9999 -9999 -9999 -9999 -9999 -9999 -9999 -9999 -9999 -9999 -9999 -9999 -9999 -9999 -9999 -9999 -9999 -9999 -9999 -9999 -9999 -9999 -9999 -9999 -9999 -9999 -9999 -9999 -9999 -9999 -9999 -9999 -9999 12.04 28.64 39.02 106.56 118.19 162.2 222.53 157.08 257.74 289.76 332.45 586.57 517.83 420.68 462.25 495.76 536.33 747.72 1074.52 1177.46 1507 1734.88 1559.93 1426.08 1402.8 1150.41 1292.35 1493.35 1078.58 893.6 873.99 760.2 654.91 625.32 544.2 485.1 471.14 423.09 482.93 568.83 395.78 296.47 158.01 100.17 117.95 181.22 219.81 386.5 529.61 783.55 687.74 559.98 455.31 495.14 440.03 385.44 354 470.3 549.49 812.31 891.57 937.61 817.84 869.66 870.52 927.62 881.43 818.28 850.76 757.37 820.89 835.3 747.33 770.66 729.25 805.63 948.45 815.39 909.97 1084.15 1073.33 1097.31 1127.61 1059.25 986.79 926.87 924.83 987.63 1065.19 1104.2 1105.75 1087.2 1095.22 1097.1 1118.99 1132.83 1125.81 1124.07 1105.67 1074.94 1011.29 943.45 895.25 854.66 848.68 872.51 890.5 857.22 836.59 836.36 846.45 864.97 891.54 939.77 1071.53 1170.07 1207.85 1125.93 1154.06 1110.39 1099.43 1137.21 1119.97 1119.95 1075.7 1019.98 938.49 862.34 843.59 798.47 700.05 725.27 718.96 615.44 568.26 586.4 644.72 388.76 279.44 297.85 283.39 181.9 189.17 200.88 143.31 151.84 193.35 295.27 356.47 368.65 377.2 364.4 311.55 340.75 435.94 703.29 470.38 595.87 693.32 758.57 717.34 755.38 815.88 824.57 842.82 887.27 823.9 831.87 839.67 864.94 914.58 933.33 880.1 901.26 881.99 797.03 816.83 772.12 717.56 698.79 674.3 633.02 626.54 657.28 599.25 475.99 422.52 405.2 377.25 324.92 373.28 423.52 266.35 198.71 158.14 132.52 146.36 179.4 193.61 179.79 149.79 141.25 135.83 101.33 72.22 36.69 7.53 -9999 -9999 -9999 -9999 -9999 -9999 -9999 -9999 -9999 -9999 -9999 -9999 -9999 -9999 -9999 -9999 -9999
-9999 -9999 -9999 -9999 -9999 -9999 -9999 -9999 -9999 -9999 -9999 -9999 -9999 -9999 -9999 -9999 -9999 -9999 -9999 -9999 -9999 -9999 -9999 -9999 -9999 -9999 -9999 -9999 -9999 -9999 -9999 -9999 -9999 -9999 -9999 -9999 -9999 -9999 -9999 -9999 -9999 -9999 -9999 -9999 -9999 -9999 -9999 -9999 -9999 -9999 -9999 -9999 -9999 -9999 -9999 -9999 -9999 -9999 -9999 -9999 -9999 -9999 -9999 -9999 -9999 -9999 -9999 -9999 -9999 -9999 -9999 -9999 -9999 -9999 -9999 -9999 -9999 -9999 -9999 -9999 -9999 -9999 -9999 -9999 -9999 -9999 -9999 -9999 -9999 -9999 -9999 -9999 -9999 -9999 -9999 -9999 -9999 -9999 -9999 -9999 -9999 -9999 -9999 -9999 -9999 -9999 -9999 -9999 -9999 -9999 -9999 -9999 -9999 -9999 -9999 -9999 -9999 -9999 -9999 -9999 -9999 -9999 -9999 -9999 -9999 -9999 -9999 -9999 -9999 -9999 -9999 -9999 -9999 -9999 -9999 -9999 -9999 -9999 -9999 -9999 -9999 -9999 -9999 -9999 -9999 -9999 -9999 -9999 -9999 -9999 -9999 -9999 -9999 -9999 -9999 -9999 -9999 -9999 -9999 -9999 -9999 -9999 -9999 -9999 -9999 -9999 -9999 -9999 -9999 -9999 -9999 -9999 -9999 -9999 -9999 -9999 24.1 41.54 29.72 46.74 84.72 166.57 210.18 301.49 230.19 292.28 391.52 445.27 470.76 352.03 330.21 401.66 439.13 723.74 840.21 1096.01 1016.29 1473.38 1486.12 1219.52 1265.34 1301.46 1173.25 1286.09 1156.87 1403.81 1223.01 1084.44 803.02 570.18 527.99 592.73 439.01 389.4 565.98 502.36 349.02 358.07 308.74 266.37 385.37 621.76 830.85 788.77 896.3 955.04 728.63 533.26 470.9 455.06 443.76 445.93 457.66 734.6 1056.03 1246.04 1319.86 1245.23 1130.15 1108.67 1176.4 1017.87 917.1 878.09 893.11 904.77 974.3 947.42 841.18 969.3 988.83 853.34 943.56 969.08 1103.6 1115.37 1130.53 1220.04 1201.62 1110.34 1031.2 991.89 1011.57 1057.28 1064.61 1071.62 1056.47 1058.8 1056.05 1063.9 1051.62 1062.71 1071.3 1074.24 1050.52 1002.13 965.5 927.8 901.32 869.47 871.38 883.6 893.95 899.65 889.02 889.4 900 960.92 1027.13 1020.42 1109.91 1156.39 1176.66 1132.8 1123.75 1179.32 1155.27 1205.44 1162.63 1094.66 1026.37 962.76 896.96 906.92 874.87 850.54 806.58 802.87 752.03 541.03 400.31 375.04 353.48 287.99 332.79 346.52 241.5 205.82 217.04 137.43 74.53 64.3 68.99 76.61 79.61 81.23 96.59 110.76 112.11 126.51 128.13 133.91 158.41 209.99 241.93 327.68 386.97 414.85 412.75 481.48 662.96 723.27 809.13 774.84 833.08 870.31 940.35 948.67 859.2 804.12 765.53 732.37 765.99 721.42 665.27 618.39 585.72 601.43 640.32 531.91 496.28 460.68 461.84 429.1 407.65 377.16 328.8 335.33 213.62 160.05 127.58 125.65 190.53 204.4 187.77 191.84 159.2 123.7 108.58 73.93 36.88 11.92 -9999 -9999 -9999 -9999 0.12 1966.11 -9999 -9999 -9999 -9999 -9999 -9999 -9999 -9999 -9999 -9999 -9999 -9999
-9999 -9999 -9999 -9999 -9999 -9999 -9999 -9999 -9999 -9999 -9999 -9999 -9999 -9999 -9999 -9999 -9999 -9999 -9999 -9999 -9999 -9999 -9999 -9999 -9999 -9999 -9999 -9999 -9999 -9999 -9999 -9999 -9999 -9999 -9999 -9999 -9999 -9999 -9999 -9999 -9999 -9999 -9999 -9999 -9999 -9999 -9999 -9999 -9999 -9999 -9999 -9999 -9999 -9999 -9999 -9999 -9999 -9999 -9999 -9999 -9999 -9999 -9999 -9999 -9999 -9999 -9999 -9999 -9999 -9999 -9999 -9999 -9999 -9999 -9999 -9999 -9999 -9999 -9999 -9999 -9999 -9999 -9999 -9999 -9999 -9999 -9999 -9999 -9999 -9999 -9999 -9999 -9999 -9999 -9999 -9999 -9999 -9999 -9999 -9999 -9999 -9999 -9999 -9999 -9999 -9999 -9999 -9999 -9999 -9999 -9999 -9999 -9999 -9999 -9999 -9999 -9999 -9999 -9999 -9999 -9999 -9999 -9999 -9999 -9999 -9999 -9999 -9999 -9999 -9999 -9999 -9999 -9999 -9999 -9999 -9999 -9999 -9999 -9999 -9999 -9999 -9999 -9999 -9999 -9999 -9999 -9999 -9999 -9999 -9999 -9999 -9999 -9999 -9999 -9999 -9999 -9999 -9999 -9999 -9999 -9999 -9999 -9999 -9999 -9999 -9999 -9999 -9999 -9999 -9999 -9999 -9999 -9999 -9999 -9999 7.19 7.33 8.31 11.63 28.32 69.89 86.6 124.27 181.71 185.85 178.28 227.13 372.56 449.45 302.87 322.29 514.18 372.01 693.06 744.03 689.5 717.01 773.29 1173.05 1266.22 922.36 1021.01 959.85 1286.38 1384.07 1253.55 1287.93 1055.82 764.81 673.79 650.03 603.26 612.9 607.27 512.83 429.88 301.96 353.88 292.78 539.34 701.8 800.76 718.84 658.71 639.59 637.77 651.79 667.39 557.35 528.2 545.97 624.7 725.69 809.18 880.29 1064.65 1189.52 1175.27 1308.55 1201.28 1073 1053.47 1011.48 1020.88 1171.67 1192.9 1138.73 971.78 960.08 1068.95 1117.83 1040.85 1101.56 1112.47 1158.13 1199.84 1226.38 1181.36 1153.97 1113.23 1088.37 1087.76 1082.48 1051.12 1063.25 1048.78 1029.5 1036.4 1035.64 1029.2 1026.65 1028.37 1036.52 1027.54 1005.06 978.89 975.21 945 905.27 890.01 900.37 918.1 920.49 917.45 920.66 958.43 1066.57 1060.23 1086.26 1139.97 1133.68 1174.43 1171.45 1174.61 1194.14 1218.44 1179.78 1141.95 1070.87 1113.67 1044.28 948.39 895.99 886.57 850.72 705.57 696.74 673.12 554.6 459.84 363.32 289.9 237.57 202.22 183.59 153.93 138.86 127.33 90.78 59.23 45.82 34.73 27.49 24.29 2638.11 15083.3 9189.3 31.24 44.08 54.35 55.46 74.09 85.69 100.4 125.12 158.53 210.19 294.33 289.15 310.22 379.95 467.09 532.55 613.4 843.98 896.75 932.73 901.74 851.58 794.04 788.63 739.37 663.26 634.54 599.18 555.34 527.38 487.25 455.66 506.98 471.48 503.82 540.56 438.41 351.08 271.82 250.27 261.13 182.47 144.83 118.96 112.6 139.46 169.7 144.06 147.35 131.07 101.38 84.2 44 11.02 -9999 -9999 -9999 -9999 -9999 -9999 -9999 -9999 -9999 -9999 -9999 -9999 -9999 -9999 -9999 -9999 -9999 -9999 -9999
-9999 -9999 -9999 -9999 -9999 -9999 -9999 -9999 -9999 -9999 -9999 -9999 -9999 -9999 -9999 -9999 -9999 -9999 -9999 -9999 -9999 -9999 -9999 -9999 -9999 -9999 -9999 -9999 -9999 -9999 -9999 -9999 -9999 -9999 -9999 -9999 -9999 -9999 -9999 -9999 -9999 -9999 -9999 -9999 -9999 -9999 -9999 -9999 -9999 -9999 -9999 -9999 -9999 -9999 -9999 -9999 -9999 -9999 -9999 -9999 -9999 -9999 -9999 -9999 -9999 -9999 -9999 -9999 -9999 -9999 -9999 -9999 -9999 -9999 -9999 -9999 -9999 -9999 -9999 -9999 -9999 -9999 -9999 -9999 -9999 -9999 -9999 -9999 -9999 -9999 -9999 -9999 -9999 -9999 -9999 -9999 -9999 -9999 -9999 -9999 -9999 -9999 -9999 -9999 -9999 -9999 -9999 -9999 -9999 -9999 -9999 -9999 -9999 -9999 -9999 -9999 -9999 -9999 -9999 -9999 -9999 -9999 -9999 -9999 -9999 -9999 -9999 -9999 -9999 -9999 -9999 -9999 -9999 -9999 -9999 -9999 -9999 -9999 -9999 -9999 -9999 -9999 -9999 -9999 -9999 -9999 -9999 -9999 -9999 -9999 -9999 -9999 -9999 -9999 -9999 -9999 -9999 -9999 -9999 -9999 -9999 -9999 -9999 -9999 -9999 -9999 -9999 -9999 -9999 -9999 -9999 -9999 -9999 -9999 -9999 11.29 7.61 7.87 11.19 15.13 49.53 76.31 54.16 105.18 97.53 140.27 194.47 230.82 222.65 233.52 223.2 496.43 366.68 534.03 483.47 549.93 551.27 588.11 703.05 621.28 757.38 846.4 1047.77 1203.71 1309.85 1075.38 1140.41 1038.48 1015.36 1108.68 989.89 681.49 604.96 747.99 428.46 283.05 227.79 292.58 349.41 406.42 545 550.32 616.42 662.35 649.4 661.71 682.58 643.67 656.18 684.66 771.13 952.01 1159.5 1163.34 1198.49 1056.58 1004.42 1169.93 1179.3 1209.18 1170.71 1183.46 1097.4 1286.07 1252.3 1139.19 1073.01 1066.71 1218.43 1218.07 1211.17 1165.81 1129.03 1149.51 1170.96 1179.15 1177.4 1118.12 1102.71 1078.32 1052.2 1062.15 1034.98 1009.69 1040.31 1007.79 1008.37 1026.61 1021.4 1019.98 1019.34 1017.82 1014.63 1022.14 1029.49 997.21 1002.35 957.73 929.36 961.16 989.91 965.75 982.84 1008.24 1059.78 1142.89 1135.55 1193.29 1232.18 1294.22 1212.93 1194.01 1228.7 1222.82 1238.08 1263.55 1170.98 1090.71 1045.24 1020.12 1009.89 1030.2 957.78 850.53 679.2 615.13 560.43 534.55 533.61 395.47 305.98 249.1 200.51 176.08 157.15 130.98 109.99 96.01 80.28 64.01 48.95 33.94 19.15 2626.86 55700.59 65521.47 65521.38 39318.27 11804.7 19.63 26.06 40.02 45.25 55.35 73.74 91.63 112.12 152.54 185.74 237.49 263.22 295.3 354.35 408.73 480.06 537.3 605.93 707.12 716.83 706.81 808.27 724.44 695.02 581.88 559.23 504.38 454.01 432.38 431.97 427.84 396.58 436.21 494.51 383.77 331.75 284.48 249.34 243.26 228.29 164.28 136.47 122.69 92.02 117.4 118.03 104.6 89.57 71.47 44.51 -9999 -9999 -9999 -9999 -9999 -9999 -9999 -9999 -9999 -9999 -9999 -9999 -9999 -9999 -9999 -9999 -9999 -9999 -9999 -9999 -9999
-9999 -9999 -9999 -9999 -9999 -9999 -9999 -9999 -9999 -9999 -9999 -9999 -9999 -9999 -9999 -9999 -9999 -9999 -9999 -9999 -9999 -9999 -9999 -9999 -9999 -9999 -9999 -9999 -9999 -9999 -9999 -9999 -9999 -9999 -9999 -9999 -9999 -9999 -9999 -9999 -9999 -9999 -9999 -9999 -9999 -9999 -9999 -9999 -9999 -9999 -9999 -9999 -9999 -9999 -9999 -9999 -9999 -9999 -9999 -9999 -9999 -9999 -9999 -9999 -9999 -9999 -9999 -9999 -9999 -9999 -9999 -9999 -9999 -9999 -9999 -9999 -9999 -9999 -9999 -9999 -9999 -9999 -9999 -9999 -9999 -9999 -9999 -9999 -9999 -9999 -9999 -9999 -9999 -9999 -9999 -9999 -9999 -9999 -9999 -9999 -9999 -9999 -9999 -9999 -9999 -9999 -9999 -9999 -9999 -9999 -9999 -9999 -9999 -9999 -9999 -9999 -9999 -9999 -9999 -9999 -9999 -9999 -9999 -9999 -9999 -9999 -9999 -9999 -9999 -9999 -9999 -9999 -9999 -9999 -9999 -9999 -9999 -9999 -9999 -9999 -9999 -9999 -9999 -9999 -9999 -9999 -9999 -9999 -9999 -9999 -9999 -9999 -9999 -9999 -9999 -9999 -9999 -9999 -9999 -9999 -9999 -9999 -9999 -9999 -9999 -9999 -9999 -9999 -9999 -9999 -9999 -9999 -9999 -9999 12.75 11 8.23 10.12 9.56 11.79 16.6 43.13 40.76 55.57 88.99 103.4 139.19 215.85 187.21 177.37 226.9 207.83 290.14 386.43 310.97 382.91 410.97 517.83 914.9 865.55 1096.58 1057.33 1095.11 1058.9 1072.75 909.33 956.26 893.69 1066.75 1295.12 1266.06 604.76 443.83 384.93 313.21 261.47 266.07 295.86 356.42 474.24 554.96 631.06 648.44 655.66 709.82 841 887.01 778.69 860.24 926.99 1194.24 1413.54 1296.96 1401.8 1241.74 1138.39 1101.83 1108.71 1123.04 1160.96 1171.68 1094.72 1124.2 1189 1149.73 1126.64 1148.96 1223.73 1226.65 1193.88 1156.44 1123.11 1123.93 1175.59 1139.08 1109.92 1102.78 1091.31 1074.61 1083.36 1063.11 1027.06 991.51 994.62 992.3 987.8 1004.02 1002.9 1007.72 1015.09 1020.29 1030.49 1045.47 1066.96 1057.19 1028.6 1030.93 1081.82 993 1033.33 1019.18 1014.71 1047.57 1113.73 1265 1343.63 1332.25 1332.49 1332.79 1259.07 1235.57 1274.52 1288.74 1133.17 1111.27 1104.26 1121.39 1098.65 1167.11 1145.61 1080.39 934.55 759.62 677.46 617.25 536.68 485.77 466.5 373.8 314.98 280.29 245.75 217.93 189.02 160.37 135.83 124.57 110.01 91.34 74.21 56.66 42.47 24.49 10490.74 64871.6 65515.9 65512.41 65514.9 64869.62 30801.59 25560.42 3287.56 14.79 22.16 35.4 51.29 73.19 104.18 127.52 151.57 199.32 263.63 314.35 381.2 451.3 568.04 637.45 615.81 601.22 710.77 619.68 568.68 556.23 474.16 676.83 550.87 428.94 389.76 374.55 357.5 356.84 391.84 445.34 438.37 411.24 335.88 313.98 362.79 246.09 197.74 118.28 77.84 62.39 61.42 68.79 56.62 35.87 18.55 8.75 -9999 -9999 -9999 -9999 -9999 -9999 -9999 -9999 -9999 -9999 -9999 -9999 -9999 -9999 -9999 -9999 -9999 -9999 -9999 -9999 -9999
-9999 -9999 -9999 -9999 -9999 -9999 -9999 -9999 -9999 -9999 -9999 -9999 -9999 -9999 -9999 -9999 -9999 -9999 -9999 -9999 -9999 -9999 -9999 -9999 -9999 -9999 -9999 -9999 -9999 -9999 -9999 -9999 -9999 -9999 -9999 -9999 -9999 -9999 -9999 -9999 -9999 -9999 -9999 -9999 -9999 -9999 -9999 -9999 -9999 -9999 -9999 -9999 -9999 -9999 -9999 -9999 -9999 -9999 -9999 -9999 -9999 -9999 -9999 -9999 -9999 -9999 -9999 -9999 -9999 -9999 -9999 -9999 -9999 -9999 -9999 -9999 -9999 -9999 -9999 -9999 -9999 -9999 -9999 -9999 -9999 -9999 -9999 -9999 -9999 -9999 -9999 -9999 -9999 -9999 -9999 -9999 -9999 -9999 -9999 -9999 -9999 -9999 -9999 -9999 -9999 -9999 -9999 -9999 -9999 -9999 -9999 -9999 -9999 -9999 -9999 -9999 -9999 -9999 -9999 -9999 -9999 -9999 -9999 -9999 -9999 -9999 -9999 -9999 -9999 -9999 -9999 -9999 -9999 -9999 -9999 -9999 -9999 -9999 -9999 -9999 -9999 -9999 -9999 -9999 -9999 -9999 -9999 -9999 -9999 -9999 -9999 -9999 -9999 -9999 -9999 -9999 -9999 -9999 -9999 -9999 -9999 -9999 -9999 -9999 -9999 -9999 -9999 -9999 -9999 -9999 -9999 -9999 -9999 14.01 9.87 7.07 7.28 8.9 11.55 12.5 16.44 21.86 39.52 50.5 59.27 67.11 84.16 120.61 170.98 174.61 270.87 299.93 301.44 333.31 296.48 288.67 367.32 413.55 496.14 548.98 631.54 778.52 889.43 963.36 914.7 945.4 765.82 716.44 937.2 798.87 702.36 471.23 439.11 328.98 298.78 380.1 369.35 394.29 497.93 604.22 706.4 827.83 790.27 863.77 875.3 980 1025.13 895.47 1004.36 1020.42 1086.75 1234.13 1456.23 1405.5 1308.57 1156.19 1107.64 1105.82 1120.95 1138.69 1157.4 1143.16 1137.49 1168.05 1165.77 1190.63 1220.11 1203.31 1166.25 1134.59 1114.63 1089.83 1100.74 1091.43 1071.76 1070.23 1064.52 1056.61 1049.08 1041.06 1018.98 996.68 985.73 985.22 986.42 999.26 1016.65 1028.34 1028.81 1045.14 1051.88 1084.63 1074.65 1098.05 1099.61 1109.29 1143.3 1077.07 1029.32 1045.87 1103.3 1086.3 1082.14 1139.79 1240.62 1314.95 1391.92 1379.92 1324.27 1276.06 1194.13 1185.98 1113.66 993.37 985.15 1033.22 1160.17 1173.18 1232.54 1153.15 884.92 706.76 634.85 556.27 504.24 438.06 414.02 344.84 312.96 315.72 284.32 250.18 221.16 190.38 180.01 163.02 142.39 121.66 99.64 79.97 60.58 45.1 29.06 15082.71 65518.23 65509.19 65508.41 65509.08 65514.35 65520.77 65521.57 64214.36 57664.13 44561.29 5907.32 28.7 53.52 75.45 94.82 109.6 127.85 171.52 294.77 419.44 502.84 575.55 488.99 472.69 478.77 529.6 463.11 414.94 400.43 391.59 434.89 316.51 419.39 340.4 343.3 360.42 391.89 449.89 616.04 580.9 260.1 239.88 254.68 152.16 71.82 65.01 58.91 73.08 62.63 21.12 16.31 15.88 8.46 -9999 -9999 -9999 -9999 -9999 -9999 -9999 -9999 -9999 -9999 -9999 -9999 -9999 -9999 -9999 -9999 -9999 -9999 -9999 -9999 -9999 -9999 -9999
-9999 -9999 -9999 -9999 -9999 -9999 -9999 -9999 -9999 -9999 -9999 -9999 -9999 -9999 -9999 -9999 -9999 -9999 -9999 -9999 -9999 -9999 -9999 -9999 -9999 -9999 -9999 -9999 -9999 -9999 -9999 -9999 -9999 -9999 -9999 -9999 -9999 -9999 -9999 -9999 -9999 -9999 -9999 -9999 -9999 -9999 -9999 -9999 -9999 -9999 -9999 -9999 -9999 -9999 -9999 -9999 -9999 -9999 -9999 -9999 -9999 -9999 -9999 -9999 -9999 -9999 -9999 -9999 -9999 -9999 -9999 -9999 -9999 -9999 -9999 -9999 -9999 -9999 -9999 -9999 -9999 -9999 -9999 -9999 -9999 -9999 -9999 -9999 -9999 -9999 -9999 -9999 -9999 -9999 -9999 -9999 -9999 -9999 -9999 -9999 -9999 -9999 -9999 -9999 -9999 -9999 -9999 -9999 -9999 -9999 -9999 -9999 -9999 -9999 -9999 -9999 -9999 -9999 -9999 -9999 -9999 -9999 -9999 -9999 -9999 -9999 -9999 -9999 -9999 -9999 -9999 -9999 -9999 -9999 -9999 -9999 -9999 -9999 -9999 -9999 -9999 -9999 -9999 -9999 -9999 -9999 -9999 -9999 -9999 -9999 -9999 -9999 -9999 -9999 -9999 -9999 -9999 -9999 -9999 -9999 -9999 -9999 -9999 -9999 -9999 -9999 -9999 -9999 -9999 -9999 -9999 -9999 -9999 21.35 6.57 7.01 8.82 11.14 14.38 16.74 19.29 20.58 24.81 29.45 77.39 90.49 110.9 237.6 259.12 139.84 182.08 252.06 280.32 360.19 369.08 369.51 445.9 334.03 385.2 537.97 757.79 726.3 698.02 874.76 747.78 802.65 676.6 765.74 766.92 552.48 433.07 363.34 327.01 323.43 383.8 403.52 444.5 446.09 586.69 936.67 979.3 1055.19 938.87 933.46 1012.06 1217.18 1292.3 1086.44 1104.33 1134.26 1146.17 1183.49 1145.19 1189.02 1184.2 1146.77 1138.72 1150.22 1184.29 1196.2 1223.36 1199.38 1188.34 1196.74 1184.43 1170.93 1155.62 1132.83 1111.68 1091.18 1080.8 1067.76 1057.87 1048.83 1046.67 1050.27 1046.69 1039.34 1027.05 1003.13 987.13 986.22 985.75 985.99 988.09 1015.82 1043.31 1051.57 1056.62 1063.75 1075.89 1113.58 1104.91 1130.59 1134.89 1130.45 1081.51 1086.16 1175.63 1149.07 1125.62 1118.78 1100.04 1160.33 1178.4 1200.49 1247.07 1259.91 1187.55 1093.42 1066.21 1073.65 970.39 900.31 926 1032.85 1143.45 1234.37 1114.62 881.85 730.11 613.29 550.38 484.44 444.12 403.05 344.55 306.56 290.14 275.07 258.14 239.53 224.56 228.16 207.97 181.68 155.44 132.91 106.48 84.12 64.36 44.76 32.86 15081.09 65510.14 65505.93 65506.59 65506.47 65507.6 65509.13 65510.35 65512.44 65517.37 65520.78 35387.68 18.56 35.64 53.01 68.95 78.25 93.43 100.1 113.99 136.84 240.83 318.83 289.1 418.75 491.92 572.64 500.8 445.23 365.5 403.18 276.74 178.17 219.04 259.56 385.92 604.7 696.41 554.27 513.58 353.35 204.8 149.62 121.62 67.76 44.75 47.05 57.99 84.78 54.8 31.1 658.2 -9999 -9999 -9999 -9999 -9999 -9999 -9999 -9999 -9999 -9999 -9999 -9999 -9999 -9999 -9999 -9999 -9999 -9999 -9999 -9999 -9999 -9999 -9999 -9999 -9999
-9999 -9999 -9999 -9999 -9999 -9999 -9999 -9999 -9999 -9999 -9999 -9999 -9999 -9999 -9999 -9999 -9999 -9999 -9999 -9999 -9999 -9999 -9999 -9999 -9999 -9999 -9999 -9999 -9999 -9999 -9999 -9999 -9999 -9999 -9999 -9999 -9999 -9999 -9999 -9999 -9999 -9999 -9999 -9999 -9999 -9999 -9999 -9999 -9999 -9999 -9999 -9999 -9999 -9999 -9999 -9999 -9999 -9999 -9999 -9999 -9999 -9999 -9999 -9999 -9999 -9999 -9999 -9999 -9999 -9999 -9999 -9999 -9999 -9999 -9999 -9999 -9999 -9999 -9999 -9999 -9999 -9999 -9999 -9999 -9999 -9999 -9999 -9999 -9999 -9999 -9999 -9999 -9999 -9999 -9999 -9999 -9999 -9999 -9999 -9999 -9999 -9999 -9999 -9999 -9999 -9999 -9999 -9999 -9999 -9999 -9999 -9999 -9999 -9999 -9999 -9999 -9999 -9999 -9999 -9999 -9999 -9999 -9999 -9999 -9999 -9999 -9999 -9999 -9999 -9999 -9999 -9999 -9999 -9999 -9999 -9999 -9999 -9999 -9999 -9999 -9999 -9999 -9999 -9999 -9999 -9999 -9999 -9999 -9999 -9999 -9999 -9999 -9999 -9999 -9999 -9999 -9999 -9999 -9999 -9999 -9999 -9999 -9999 -9999 -9999 -9999 -9999 -9999 -9999 -9999 -9999 -9999 21.26 10 25.25 32.78 29.93 36.34 36.1 29.3 26.78 28.77 33.61 45.45 136.96 199.88 69.38 143.82 157.43 120.37 151.3 212.2 203.27 302.81 302.94 268.39 290.92 392.43 489.18 590.02 602.3 676.26 600.97 592.59 610.62 602.2 566.68 556.53 478.41 418.06 393.32 361.21 342.99 382.09 448.03 499.31 570.32 598 839.85 843.84 1162.18 1303.68 1182.39 1059.82 1038.62 1043.91 1050.76 1081.1 1131.02 1120.68 1105.66 1102.73 1074.57 1108.56 1136.2 1160.26 1213.34 1284.3 1256.07 1235.98 1246.92 1221.42 1191.2 1177.32 1156.98 1127.15 1107.74 1089.07 1077.96 1065.15 1057.5 1051.32 1044.83 1042.19 1031.57 1036.9 1028.6 1002.07 987.54 987.27 991.25 1008.81 1011.6 1008.28 1031.7 1049.95 1063.19 1067.59 1067.69 1084.77 1108.61 1147.5 1170.44 1178.13 1173.59 1134.2 1172.25 1252.49 1335.44 1262.82 1238.77 1252.89 1219.72 1179.14 1150.94 1126.8 1113.43 1099.35 1028.04 987.7 987.51 968.84 870.35 844.99 865.48 1031.95 1182.83 961.49 827.64 729.33 639.98 558.79 484.7 429.31 398.56 374.77 338.17 318.15 332.11 323.42 304.95 289.18 275.42 246.1 214.63 187.3 162.73 138.96 115.52 90.64 67.61 40.37 26.08 8533.79 65513.31 65506.62 65503.99 65503.66 65505.19 65506.57 65507.88 65508.65 65513.33 65515.2 64869.23 21628.97 19.54 33.33 45.04 54.51 60.15 61.66 60.38 53.1 34.73 45.56 76.82 90.34 54.44 80.49 124.11 168.06 178.22 176.75 158.07 199.26 243.62 275.71 234.15 231.78 313.9 341.27 375.94 371.45 217.81 194.84 100.59 90.56 78.31 94.66 76.57 60.48 27.62 -9999 -9999 -9999 -9999 -9999 -9999 -9999 -9999 -9999 -9999 -9999 -9999 -9999 -9999 -9999 -9999 -9999 -9999 -9999 -9999 -9999 -9999 -9999 -9999 -9999 -9999 -9999
-9999 -9999 -9999 -9999 -9999 -9999 -9999 -9999 -9999 -9999 -9999 -9999 -9999 -9999 -9999 -9999 -9999 -9999 -9999 -9999 -9999 -9999 -9999 -9999 -9999 -9999 -9999 -9999 -9999 -9999 -9999 -9999 -9999 -9999 -9999 -9999 -9999 -9999 -9999 -9999 -9999 -9999 -9999 -9999 -9999 -9999 -9999 -9999 -9999 -9999 -9999 -9999 -9999 -9999 -9999 -9999 -9999 -9999 -9999 -9999 -9999 -9999 -9999 -9999 -9999 -9999 -9999 -9999 -9999 -9999 -9999 -9999 -9999 -9999 -9999 -9999 -9999 -9999 -9999 -9999 -9999 -9999 -9999 -9999 -9999 -9999 -9999 -9999 -9999 -9999 -9999 -9999 -9999 -9999 -9999 -9999 -9999 -9999 -9999 -9999 -9999 -9999 -9999 -9999 -9999 -9999 -9999 -9999 -9999 -9999 -9999 -9999 -9999 -9999 -9999 -9999 -9999 -9999 -9999 -9999 -9999 -9999 -9999 -9999 -9999 -9999 -9999 -9999 -9999 -9999 -9999 -9999 -9999 -9999 -9999 -9999 -9999 -9999 -9999 -9999 -9999 -9999 -9999 -9999 -9999 -9999 -9999 -9999 -9999 -9999 -9999 -9999 -9999 -9999 -9999 -9999 -9999 -9999 -9999 -9999 -9999 -9999 -9999 -9999 -9999 -9999 -9999 -9999 -9999 -9999 -9999 11.73 46.49 65.13 63.71 78.69 85.53 92.58 85.08 68.35 51.9 67.18 92.96 145.37 172.54 315.5 139.1 187.28 231.96 264.28 359.83 457.46 287.96 246.52 233.56 290.93 375.84 546.93 440.94 493.16 379.38 452.39 540.83 634.71 591.47 603.39 610.4 530.53 473.35 437.04 428.88 388.62 408.23 469.33 528.07 556.31 609.28 673.9 854.24 806.87 776.85 854.24 867.17 878.03 857.79 872.08 921.8 983.01 1027.74 1051.94 1036.46 1059 1092.97 1176.32 1245.81 1230.43 1243.61 1294.6 1284.12 1258.12 1225.54 1201.43 1166.34 1154.7 1132.4 1103.56 1081.92 1067.16 1055.65 1046.27 1039.19 1019.13 1018.98 1033.56 1011.45 990.02 986.47 986.48 988.72 987.82 1003.18 1033.71 1019.47 1020.56 1038.58 1069.22 1095.98 1102.33 1124.19 1136.54 1173.82 1221.51 1236 1207.23 1185.15 1241.29 1290.27 1373.12 1452.44 1386.17 1322.33 1256.01 1194.35 1208.37 1199.34 1155.42 1139.54 1022.35 970.67 956.38 911.34 852.31 817.26 799.48 785.3 780.25 818.32 776.7 737.35 642.01 564.35 498.35 466.57 460.61 424.49 384.12 363.7 378.33 369.71 368.59 355.54 316.54 284.41 255.69 225.4 194.96 167.07 138.6 115.17 89.02 65.08 39.23 1987.18 30145.13 65514.25 65507.63 65506.45 65504.18 65504.46 65506.85 65508.71 65510.08 64862.71 65516.53 65517.31 64870.83 19663.59 14.55 26.07 32.39 34.85 35.01 31.39 23.76 11.65 11804.04 13775.94 26874.04 35386.66 17059.27 58.2 80.26 85.79 95.05 138.52 228.97 331.46 277.89 326.85 517.23 435.02 227.75 165.59 119.02 90.82 85.35 93.66 89.58 77.81 65.98 44.71 27.16 -9999 -9999 -9999 -9999 -9999 -9999 -9999 -9999 -9999 -9999 -9999 -9999 -9999 -9999 -9999 -9999 -9999 -9999 -9999 -9999 -9999 -9999 -9999 -9999 -9999 -9999 -9999 -9999
-9999 -9999 -9999 -9999 -9999 -9999 -9999 -9999 -9999 -9999 -9999 -9999 -9999 -9999 -9999 -9999 -9999 -9999 -9999 -9999 -9999 -9999 -9999 -9999 -9999 -9999 -9999 -9999 -9999 -9999 -9999 -9999 -9999 -9999 -9999 -9999 -9999 -9999 -9999 -9999 -9999 -9999 -9999 -9999 -9999 -9999 -9999 -9999 -9999 -9999 -9999 -9999 -9999 -9999 -9999 -9999 -9999 -9999 -9999 -9999 -9999 -9999 -9999 -9999 -9999 -9999 -9999 -9999 -9999 -9999 -9999 -9999 -9999 -9999 -9999 -9999 -9999 -9999 -9999 -9999 -9999 -9999 -9999 -9999 -9999 -9999 -9999 -9999 -9999 -9999 -9999 -9999 -9999 -9999 -9999 -9999 -9999 -9999 -9999 -9999 -9999 -9999 -9999 -9999 -9999 -9999 -9999 -9999 -9999 -9999 -9999 -9999 -9999 -9999 -9999 -9999 -9999 -9999 -9999 -9999 -9999 -9999 -9999 -9999 -9999 -9999 -9999 -9999 -9999 -9999 -9999 -9999 -9999 -9999 -9999 -9999 -9999 -9999 -9999 -9999 -9999 -9999 -9999 -9999 -9999 -9999 -9999 -9999 -9999 -9999 -9999 -9999 -9999 -9999 -9999 -9999 -9999 -9999 -9999 -9999 -9999 -9999 -9999 -9999 -9999 -9999 -9999 -9999 -9999 -9999 -9999 54.21 107.46 116.16 122.37 122.95 158.72 156.34 161.53 146.26 107.57 245.84 399.44 229.92 274.6 374.73 392.01 322.69 263.54 289.19 294.89 519.68 421.05 282.26 359.14 249.62 290.92 290.86 326.87 429.86 631.27 1027.24 1091.97 1332.17 1028.55 840.77 675.06 574.27 525.09 505.31 477.5 432.62 501.28 570.09 601.37 638.84 689.42 738.17 842.16 977.8 983.02 1071.44 1136.84 1064.47 993.1 975.15 887.39 910.79 985.05 1009.9 1048.87 1134.74 1230.88 1263.19 1235.49 1229.42 1240.15 1243.46 1230.78 1214.07 1189.79 1175.92 1150.98 1122.81 1110.42 1075.54 1060.35 1048.54 1020.88 1000.42 988.04 983.24 989.5 997.9 986.71 998.24 1001.88 995.08 997.24 984.53 998.08 1028.22 1026.67 1066.29 1085.43 1104.34 1130.45 1132.46 1160.11 1200.92 1246.41 1264.74 1291.05 1245.21 1252.96 1373.93 1450.59 1418.33 1347.09 1281.36 1238.81 1167.47 1116.84 1112.5 1127.72 1192.12 1135.87 933.2 883.24 874.35 831.28 818.84 832.3 836.25 780.16 748.69 698.67 674.49 621.95 569.74 533.72 520.8 520.68 487.48 446.38 414.86 438.85 432.74 420.16 403.73 372.19 338.38 299.88 265.77 233.69 202.33 171.42 144.6 120.29 100.37 60.78 18.45 50454.33 65505.88 65506.24 65513.52 65513.54 65511.83 65507.65 65510.63 65516.3 65519.69 65522.14 65517.13 65517.92 65523.07 57664.37 38009.8 6563.76 665.2 1976.43 16389.85 38664.73 47832.87 55036.76 65516.81 65514.77 65514.34 65516.98 47180.39 21.6 77.09 148.01 220.85 218.05 214.95 247.36 291.53 348.47 329.95 305.3 260.93 239.98 247.73 172.23 178.63 144.95 133.25 74.65 64.32 80.5 39.95 -9999 -9999 -9999 -9999 -9999 -9999 -9999 -9999 -9999 -9999 -9999 -9999 -9999 -9999 -9999 -9999 -9999 -9999 -9999 -9999 -9999 -9999 -9999 -9999 -9999 -9999 -9999 -9999
-9999 -9999 -9999 -9999 -9999 -9999 -9999 -9999 -9999 -9999 -9999 -9999 -9999 -9999 -9999 -9999 -9999 -9999 -9999 -9999 -9999 -9999 -9999 -9999 -9999 -9999 -9999 -9999 -9999 -9999 -9999 -9999 -9999 -9999 -9999 -9999 -9999 -9999 -9999 -9999 -9999 -9999 -9999 -9999 -9999 -9999 -9999 -9999 -9999 -9999 -9999 -9999 -9999 -9999 -9999 -9999 -9999 -9999 -9999 -9999 -9999 -9999 -9999 -9999 -9999 -9999 -9999 -9999 -9999 -9999 -9999 -9999 -9999 -9999 -9999 -9999 -9999 -9999 -9999 -9999 -9999 -9999 -9999 -9999 -9999 -9999 -9999 -9999 -9999 -9999 -9999 -9999 -9999 -9999 -9999 -9999 -9999 -9999 -9999 -9999 -9999 -9999 -9999 -9999 -9999 -9999 -9999 -9999 -9999 -9999 -9999 -9999 -9999 -9999 -9999 -9999 -9999 -9999 -9999 -9999 -9999 -9999 -9999 -9999 -9999 -9999 -9999 -9999 -9999 -9999 -9999 -9999 -9999 -9999 -9999 -9999 -9999 -9999 -9999 -9999 -9999 -9999 -9999 -9999 -9999 -9999 -9999 -9999 -9999 -9999 -9999 -9999 -9999 -9999 -9999 -9999 -9999 -9999 -9999 -9999 -9999 -9999 -9999 -9999 -9999 -9999 -9999 -9999 -9999 -9999 41.03 116.27 145.38 163.27 176.99 182.77 214.62 231.48 237.03 227.22 169.54 251.03 395.22 388.21 302.57 549.42 778.59 550.69 301.03 417.85 399.15 438.79 364.37 305.91 400.91 437.71 391.67 391.93 527.44 665.52 807.9 1170.58 1413.24 1325.49 1076.97 892.61 635.86 675.95 667.47 558.03 469.37 521.98 638 666.64 846.23 953.59 1015.98 1055.7 1112.88 1173.81 1202.4 1195.36 1122.14 1083.92 1046.73 1011.46 941.75 922.07 1006.34 1050 1088.21 1151.37 1164.98 1173.02 1180.19 1193.69 1190.2 1188.98 1180.49 1171.53 1161.02 1139.8 1120.09 1096.92 1082.17 1064.6 1042.04 988.7 984.11 1010.72 1029.05 993.27 999.41 1009.52 1014.94 1035.79 1038.49 1033.28 1011.9 1028.86 1055.69 1061.62 1067.92 1089.83 1124.38 1166.27 1158.99 1194.35 1187.59 1236.43 1277.27 1340.26 1340.08 1371.64 1390.93 1435.26 1443.07 1414.13 1311.87 1177.46 1110.56 1052.55 1012.04 1043.89 1068.3 1198.26 958.94 925.63 898.47 832.62 779.82 782.36 819.68 778.02 703.74 669.87 624.6 596.27 584.71 585.57 577.21 569.71 557.88 506.88 477.06 483.93 472.89 451.93 414.26 390.46 374.5 346.24 318.79 280.79 241.29 214.97 191.44 161.32 140.73 102.38 44.23 18.84 22939.01 65511.55 65504.47 65507.5 65508.4 65506.8 65510.36 65520.61 65521.06 65520.24 65522.49 63553.29 52418.35 65523.59 53733.07 47837.44 15731.8 9179.76 7867.15 24250.34 31457.52 34730.56 34730.87 62899.81 65517.56 65518.57 65519.51 45218.45 51.12 121.08 83.83 58.25 67.52 85.65 119.38 95 102.87 126.94 100.03 98.98 95.64 135.42 106.71 96.95 81.29 63.07 80.38 74.31 71.36 45.71 -9999 -9999 -9999 -9999 -9999 -9999 -9999 -9999 -9999 -9999 -9999 -9999 -9999 -9999 -9999 -9999 -9999 -9999 -9999 -9999 -9999 -9999 -9999 -9999 -9999 -9999 -9999 -9999
-9999 -9999 -9999 -9999 -9999 -9999 -9999 -9999 -9999 -9999 -9999 -9999 -9999 -9999 -9999 -9999 -9999 -9999 -9999 -9999 -9999 -9999 -9999 -9999 -9999 -9999 -9999 -9999 -9999 -9999 -9999 -9999 -9999 -9999 -9999 -9999 -9999 -9999 -9999 -9999 -9999 -9999 -9999 -9999 -9999 -9999 -9999 -9999 -9999 -9999 -9999 -9999 -9999 -9999 -9999 -9999 -9999 -9999 -9999 -9999 -9999 -9999 -9999 -9999 -9999 -9999 -9999 -9999 -9999 -9999 -9999 -9999 -9999 -9999 -9999 -9999 -9999 -9999 -9999 -9999 -9999 -9999 -9999 -9999 -9999 -9999 -9999 -9999 -9999 -9999 -9999 -9999 -9999 -9999 -9999 -9999 -9999 -9999 -9999 -9999 -9999 -9999 -9999 -9999 -9999 -9999 -9999 -9999 -9999 -9999 -9999 -9999 -9999 -9999 -9999 -9999 -9999 -9999 -9999 -9999 -9999 -9999 -9999 -9999 -9999 -9999 -9999 -9999 -9999 -9999 -9999 -9999 -9999 -9999 -9999 -9999 -9999 -9999 -9999 -9999 -9999 -9999 -9999 -9999 -9999 -9999 -9999 -9999 -9999 -9999 -9999 -9999 -9999 -9999 -9999 -9999 -9999 -9999 -9999 -9999 -9999 -9999 -9999 -9999 -9999 -9999 -9999 -9999 -9999 62.96 87.61 125.49 141.24 173.64 235.47 262.36 276.39 310.73 309.18 288.43 251.51 198.28 300.7 368.42 349.25 387.09 506.72 529.67 414.45 437.38 467.58 503.66 529.74 507.05 473.6 579.01 568.95 590.05 745.76 860.49 1075.55 1311.9 1211.65 1174.96 963.05 763.86 818.1 882.57 808.14 652.64 529.9 683.6 700.15 839.46 1240.24 1407.41 1577.57 1512.22 1396.47 1407.89 1275.09 1164.7 1121.7 1089.02 1061.52 1041.17 951.31 955.57 981.63 1029.7 1076.89 1111.34 1122.93 1141.2 1150.53 1150.37 1152.36 1153.01 1142.26 1134.05 1123.99 1110 1095.55 1077.31 1063.18 1056.9 1038.56 986.63 1010.62 1047.76 1031.97 1022.65 1043.95 1046.17 1060.57 1072.54 1079.79 1067.57 1067.08 1085.01 1086.03 1089.19 1100.37 1128.09 1158.29 1183.6 1245.43 1252.72 1205.6 1246.56 1308.86 1379.04 1413.31 1408.32 1424.05 1453.38 1389.39 1292.49 1239.42 1208.53 1033.26 979.18 947.78 974.69 1088.96 1005.62 936.44 902.38 855.61 768.03 715.35 718.24 723 667.68 643.35 628.54 633.97 644.39 642.93 644.18 640.41 615.79 581.06 535.53 534.68 499.43 462.79 429.35 394.63 356.91 328.09 307.38 290.48 259.09 223.38 207.75 195.22 181.59 155.97 113.98 70.21 27.49 7219.02 57656.19 65505.43 65506.76 65510.48 65509.74 65515.81 65519.25 65521.57 65523.37 63562.18 57664.24 50457.18 45215.95 9180.1 7216.77 11.47 19.71 22.02 20.23 20.45 18.81 15.95 3945.33 15744.56 11825.79 7908.63 712.66 44.26 17.34 14.82 14.27 14.64 15.31 16.22 18.95 22.42 22.94 24.3 32.48 45.28 51.98 47.43 34.36 24.6 24.35 29.83 36 46.88 40.77 16.9 -9999 -9999 -9999 -9999 -9999 -9999 -9999 -9999 -9999 -9999 -9999 -9999 -9999 -9999 -9999 -9999 -9999 -9999 -9999 -9999 -9999 -9999 -9999 -9999 -9999 -9999 -9999
-9999 -9999 -9999 -9999 -9999 -9999 -9999 -9999 -9999 -9999 -9999 -9999 -9999 -9999 -9999 -9999 -9999 -9999 -9999 -9999 -9999 -9999 -9999 -9999 -9999 -9999 -9999 -9999 -9999 -9999 -9999 -9999 -9999 -9999 -9999 -9999 -9999 -9999 -9999 -9999 -9999 -9999 -9999 -9999 -9999 -9999 -9999 -9999 -9999 -9999 -9999 -9999 -9999 -9999 -9999 -9999 -9999 -9999 -9999 -9999 -9999 -9999 -9999 -9999 -9999 -9999 -9999 -9999 -9999 -9999 -9999 -9999 -9999 -9999 -9999 -9999 -9999 -9999 -9999 -9999 -9999 -9999 -9999 -9999 -9999 -9999 -9999 -9999 -9999 -9999 -9999 -9999 -9999 -9999 -9999 -9999 -9999 -9999 -9999 -9999 -9999 -9999 -9999 -9999 -9999 -9999 -9999 -9999 -9999 -9999 -9999 -9999 -9999 -9999 -9999 -9999 -9999 -9999 -9999 -9999 -9999 -9999 -9999 -9999 -9999 -9999 -9999 -9999 -9999 -9999 -9999 -9999 -9999 -9999 -9999 -9999 -9999 -9999 -9999 -9999 -9999 -9999 -9999 -9999 -9999 -9999 -9999 -9999 -9999 -9999 -9999 -9999 -9999 -9999 -9999 -9999 -9999 -9999 -9999 -9999 -9999 -9999 -9999 -9999 -9999 -9999 -9999 -9999 71.22 135.42 152.84 147.46 204.14 238.97 269.02 333.96 363.35 393.21 397.29 392.74 276.67 322.96 399.89 484.2 510.16 547.74 586.13 619.85 647.11 654.47 652.92 654.55 699.46 810.26 712.8 685.61 610.09 845.7 979.74 1116.04 1281.41 1171.4 1366.77 1313.41 1129.03 1295.91 1126.91 1285.4 1078.86 829.97 653.37 855.21 1116.67 1179.05 1516.41 1529.24 1452.67 1391.47 1366.74 1341.54 1239.64 1132.92 1094.1 1075.53 1069.73 1039.19 974.43 999.86 1013.77 1061.63 1073.31 1095.96 1105.99 1115.11 1117.3 1115.14 1120.13 1115.38 1110.22 1102.48 1094.71 1085.83 1078.57 1069.41 1064.62 1059.13 1049.57 1025.81 1074.9 1050.48 1029.57 1044.22 1057.92 1072.11 1115.67 1166.08 1154.39 1119.91 1108.21 1100.51 1109.26 1128.79 1143.8 1174.91 1200.3 1286.39 1317.92 1268.6 1290.68 1315.6 1369.22 1436.08 1431.9 1401.04 1322.3 1372.39 1365.15 1251.37 1348.07 1170.35 978.3 914.49 884.85 878.85 876.19 861.85 808.73 819.25 789.36 729.56 702.22 675.87 658.23 644.39 652.99 663.46 679.95 681.61 677.55 669.97 648.14 630.25 615.61 585.31 546.83 522.73 480.89 434.56 395.13 367.57 345.77 321.57 296.84 270.26 256.98 254.1 220.75 184.49 155.51 130.13 97.07 47.09 23.38 17698.76 58311.46 46517.14 39975.33 34730.4 51109.39 60282.3 65523.44 54389.47 28835.07 26870.01 26869.97 20973.75 11.52 15.76 18.55 25.03 26.9 27.01 28.64 35.97 38.08 35.64 60.85 84.06 70.59 31.18 18.45 15.21 14.62 14.84 15.51 16.31 17.57 20.48 24.06 24.88 23.57 24.01 23.08 23.28 29 37.72 52.67 59.48 79.33 77.1 94.34 84.75 44.94 8.01 -9999 -9999 -9999 -9999 -9999 -9999 -9999 2.81 6.66 -9999 -9999 -9999 -9999 -9999 -9999 -9999 -9999 -9999 -9999 -9999 -9999 -9999 -9999 -9999 -9999 -9999
-9999 -9999 -9999 -9999 -9999 -9999 -9999 -9999 -9999 -9999 -9999 -9999 -9999 -9999 -9999 -9999 -9999 -9999 -9999 -9999 -9999 -9999 -9999 -9999 -9999 -9999 -9999 -9999 -9999 -9999 -9999 -9999 -9999 -9999 -9999 -9999 -9999 -9999 -9999 -9999 -9999 -9999 -9999 -9999 -9999 -9999 -9999 -9999 -9999 -9999 -9999 -9999 -9999 -9999 -9999 -9999 -9999 -9999 -9999 -9999 -9999 -9999 -9999 -9999 -9999 -9999 -9999 -9999 -9999 -9999 -9999 -9999 -9999 -9999 -9999 -9999 -9999 -9999 -9999 -9999 -9999 -9999 -9999 -9999 -9999 -9999 -9999 -9999 -9999 -9999 -9999 -9999 -9999 -9999 -9999 -9999 -9999 -9999 -9999 -9999 -9999 -9999 -9999 -9999 -9999 -9999 -9999 -9999 -9999 -9999 -9999 -9999 -9999 -9999 -9999 -9999 -9999 -9999 -9999 -9999 -9999 -9999 -9999 -9999 -9999 -9999 -9999 -9999 -9999 -9999 -9999 -9999 -9999 -9999 -9999 -9999 -9999 -9999 -9999 -9999 -9999 -9999 -9999 -9999 -9999 -9999 -9999 -9999 -9999 -9999 -9999 -9999 -9999 -9999 -9999 -9999 -9999 -9999 -9999 -9999 -9999 -9999 -9999 -9999 -9999 24.53 61.46 110.54 153.02 207.66 223.28 187.84 270.73 297.82 300.59 378.63 432.45 402.56 431.04 416.42 245.29 307.45 496.1 594.7 612.64 669.94 679.01 704.83 780.13 839.74 895.7 952.11 1133.76 1151.46 1011.96 933.42 723.35 941.7 965.16 899.11 942.68 1526.46 1890.01 1747.59 1598.91 1459.81 1095.59 1367.3 1183.74 688.34 728.8 933.98 1184.91 1349.6 1436.09 1422.38 1387.05 1302.87 1236.89 1193.36 1147.72 1105.46 1089.9 1081.71 1078.68 1072.8 1005.32 1044.85 1075.03 1078.96 1045.16 1023.41 1015.18 1014.38 1070.39 1080.84 1094.72 1090.38 1080.52 1072.24 1075.27 1072.35 1076.45 1073.02 1075.51 1071.63 1060.47 1051.76 1057.42 1037.66 1034.76 1058.42 1075.68 1097.86 1138.12 1191.87 1235.54 1199.15 1177.61 1175.49 1180.61 1208.28 1199.36 1208.86 1284.85 1406.08 1455.64 1323.88 1369.69 1420.96 1426.24 1381.05 1289.66 1262.42 1222.83 1264.87 1392.28 1291.27 1140.47 1003.6 945.19 927.71 909.7 859.99 834.63 793.73 769.87 751.21 732.76 722.08 707.8 688.95 678.32 674.31 672.99 678.2 700.24 713.3 710.45 702.99 686.82 662.74 631.41 592.26 532.52 517.68 494.59 451.32 401.43 359.5 334.75 328.45 316.89 283.52 270.34 257.76 233.23 209.23 177.8 158.35 127.33 75.66 42.96 26.5 4600.1 20.23 21.86 23.12 2641.84 4601.61 7219.87 6563.96 1321.56 1976.53 10.76 13.82 18.32 21.86 25.73 32.74 32.63 36.33 35.47 35.1 26.55 20.53 18.51 18.18 17.76 16.96 16.69 15.83 15.24 15.06 15.71 16.15 17.98 23.14 34.13 50.61 51.88 47.11 45.75 46.95 62.65 83.33 124.65 176.7 138.94 103.29 138 133.33 71.93 36.31 10.19 -9999 -9999 -9999 -9999 -9999 -9999 8.83 25.97 21.62 1970.66 -9999 -9999 -9999 -9999 -9999 -9999 -9999 -9999 -9999 -9999 -9999 -9999 -9999 -9999 -9999
-9999 -9999 -9999 -9999 -9999 -9999 -9999 -9999 -9999 -9999 -9999 -9999 -9999 -9999 -9999 -9999 -9999 -9999 -9999 -9999 -9999 -9999 -9999 -9999 -9999 -9999 -9999 -9999 -9999 -9999 -9999 -9999 -9999 -9999 -9999 -9999 -9999 -9999 -9999 -9999 -9999 -9999 -9999 -9999 -9999 -9999 -9999 -9999 -9999 -9999 -9999 -9999 -9999 -9999 -9999 -9999 -9999 -9999 -9999 -9999 -9999 -9999 -9999 -9999 -9999 -9999 -9999 -9999 -9999 -9999 -9999 -9999 -9999 -9999 -9999 -9999 -9999 -9999 -9999 -9999 -9999 -9999 -9999 -9999 -9999 -9999 -9999 -9999 -9999 -9999 -9999 -9999 -9999 -9999 -9999 -9999 -9999 -9999 -9999 -9999 -9999 -9999 -9999 -9999 -9999 -9999 -9999 -9999 -9999 -9999 -9999 -9999 -9999 -9999 -9999 -9999 -9999 -9999 -9999 -9999 -9999 -9999 -9999 -9999 -9999 -9999 -9999 -9999 -9999 -9999 -9999 -9999 -9999 -9999 -9999 -9999 -9999 -9999 -9999 -9999 -9999 -9999 -9999 -9999 -9999 -9999 -9999 -9999 -9999 -9999 -9999 -9999 -9999 -9999 -9999 -9999 -9999 -9999 -9999 -9999 -9999 -9999 -9999 16.74 67.63 126.31 168.19 195.29 245.77 274.17 256.62 214.56 365.97 291.89 328.8 309.81 330.69 380.63 377.08 361.13 426.79 607.36 667.57 683.66 738.74 754.77 781.98 891.77 1047.79 1157.76 1257.16 1338.32 1581.65 1474.68 1360.4 1341.17 1093.33 843.84 914.4 1151.12 1414.54 1634.5 2171.67 2353.03 1795.11 1409.77 1650.24 1431.78 754.93 670.53 756.8 941.48 1117.45 1258.94 1346.1 1333.91 1330.34 1254.4 1205.64 1161.22 1132.33 1111.86 1099.94 1091.52 1079.76 1058.61 1030.19 1069.14 1084.5 1083.78 1057.16 1023.09 1023.53 1001.42 986.09 1007.11 1061.99 1045.62 1011.72 1012.45 1051.12 1068.17 1070.91 1074.65 1079.88 1075.18 1074.42 1077.51 1115.84 1052.31 1054.34 1070.19 1091.37 1116.65 1147.02 1182.91 1226.58 1266.6 1271.52 1262.22 1296.4 1287.32 1254.73 1270.35 1357.27 1517.57 1477.05 1385.41 1437.19 1454.92 1400.09 1328.68 1195.51 1136.48 1189.76 1268.98 1291.71 1083.66 1012.45 982.89 973.38 987.19 919.44 868.72 802.97 792.23 784.03 775.16 763.32 776.73 774.73 749.36 744.04 710.82 715.1 726.26 736 747.78 745.32 740.31 679.67 653.6 622.24 587.57 547.26 497.41 462.95 426.71 400.12 375.79 352.66 333.76 310.33 292.44 262.8 240.97 216.87 196 183.33 162.57 119.5 78.91 60.26 40.44 23.52 37.9 43.28 48.57 46.54 41.46 35.34 30.11 26.07 24.07 23.49 26.34 30.11 31.12 34.71 37.9 39.26 42.18 39.13 36.41 29.86 24.35 20.96 19.65 18.55 17.95 672.35 16.1 15.55 15.09 15.65 16.02 15.76 15.32 19.07 36.38 88.38 135.21 153.09 181.34 232.96 277.78 243.91 177.08 141.5 120.81 137.04 132.77 97.95 70.39 45.78 22.64 -9999 -9999 -9999 -9999 659.18 -9999 12.81 -9999 -9999 -9999 -9999 -9999 -9999 -9999 -9999 -9999 -9999 -9999 -9999 -9999 -9999 -9999 -9999 -9999
-9999 -9999 -9999 -9999 -9999 -9999 -9999 -9999 -9999 -9999 -9999 -9999 -9999 -9999 -9999 -9999 -9999 -9999 -9999 -9999 -9999 -9999 -9999 -9999 -9999 -9999 -9999 -9999 -9999 -9999 -9999 -9999 -9999 -9999 -9999 -9999 -9999 -9999 -9999 -9999 -9999 -9999 -9999 -9999 -9999 -9999 -9999 -9999 -9999 -9999 -9999 -9999 -9999 -9999 -9999 -9999 -9999 -9999 -9999 -9999 -9999 -9999 -9999 -9999 -9999 -9999 -9999 -9999 -9999 -9999 -9999 -9999 -9999 -9999 -9999 -9999 -9999 -9999 -9999 -9999 -9999 -9999 -9999 -9999 -9999 -9999 -9999 -9999 -9999 -9999 -9999 -9999 -9999 -9999 -9999 -9999 -9999 -9999 -9999 -9999 -9999 -9999 -9999 -9999 -9999 -9999 -9999 -9999 -9999 -9999 -9999 -9999 -9999 -9999 -9999 -9999 -9999 -9999 -9999 -9999 -9999 -9999 -9999 -9999 -9999 -9999 -9999 -9999 -9999 -9999 -9999 -9999 -9999 -9999 -9999 -9999 -9999 -9999 -9999 -9999 -9999 -9999 -9999 -9999 -9999 -9999 -9999 -9999 -9999 -9999 -9999 -9999 -9999 -9999 -9999 -9999 -9999 -9999 -9999 -9999 -9999 16.27 53.63 96.96 141.8 196.18 248.65 274.16 304.05 352.89 313.13 337.96 374.2 399.48 344.19 338.77 335.09 356.28 572.25 593.8 675.91 509.97 668.56 840.89 904.68 973.12 1004.11 1192.11 1269.35 1334.34 1431.36 1586.77 1647.34 1544.75 1472 1545.44 1358.72 886 959.26 1514.52 1909.26 1851.7 2152.05 1985.71 1860.37 1971.19 2150.62 1070.2 709.2 737.02 851.39 979.9 1112.5 1227.84 1307.34 1308.45 1288.63 1235.12 1192.38 1157 1138.19 1123.91 1112.22 1096.23 1075.64 1080.18 1095.4 1088.12 1092.54 1092.31 1069.02 1071.33 1068.91 1079.6 1072.54 1055.78 1071.45 1046.39 1060.04 1050.26 1022.24 1061.2 1082.13 1083.28 1076.33 1079.03 1086.04 1110.79 1244.62 1082 1077.75 1110.08 1132.52 1162.67 1175.73 1186.35 1202.67 1256.68 1287.81 1276.13 1295.32 1293.52 1326.6 1386.69 1476.26 1458.95 1348.77 1341.07 1422.58 1597.18 1474.26 1269.67 1207.2 1249.23 1118.34 1083.61 1034.44 1002.15 987.91 956.46 939.66 912.25 871 832.43 824.52 825.62 820.63 814.64 820.34 818.43 807.49 786.41 763.84 755.8 764.29 768.4 764.35 750.79 716.68 690.62 665.03 646.01 612.1 585.55 563.25 539.96 512.06 466.81 443.84 406 366.71 350.74 332 302.33 275.22 255.91 232.47 183.6 157.21 151.17 126.12 98.37 69.01 38.89 18.06 45.22 60.45 62.26 61.23 59.51 52.95 47.49 43.09 39.48 39.11 39.88 40.87 42.29 45.35 45.62 47.82 45.7 39.73 38.35 33.83 30.22 27.16 24.21 22.71 20.64 18.46 17.35 14.14 13.88 16.86 16.47 15.8 16.17 19.73 29.45 54.23 80.4 117.94 148.35 181.97 207.29 161.96 175.55 222.96 214.5 238.06 227.89 160.48 136.49 79.4 46.15 19.7 9832.97 1972.21 668.47 8.86 -9999 -9999 -9999 -9999 -9999 -9999 -9999 -9999 -9999 -9999 -9999 -9999 -9999 -9999 -9999 -9999 -9999 -9999 -9999
-9999 -9999 -9999 -9999 -9999 -9999 -9999 -9999 -9999 -9999 -9999 -9999 -9999 -9999 -9999 -9999 -9999 -9999 -9999 -9999 -9999 -9999 -9999 -9999 -9999 -9999 -9999 -9999 -9999 -9999 -9999 -9999 -9999 -9999 -9999 -9999 -9999 -9999 -9999 -9999 -9999 -9999 -9999 -9999 -9999 -9999 -9999 -9999 -9999 -9999 -9999 -9999 -9999 -9999 -9999 -9999 -9999 -9999 -9999 -9999 -9999 -9999 -9999 -9999 -9999 -9999 -9999 -9999 -9999 -9999 -9999 -9999 -9999 -9999 -9999 -9999 -9999 -9999 -9999 -9999 -9999 -9999 -9999 -9999 -9999 -9999 -9999 -9999 -9999 -9999 -9999 -9999 -9999 -9999 -9999 -9999 -9999 -9999 -9999 -9999 -9999 -9999 -9999 -9999 -9999 -9999 -9999 -9999 -9999 -9999 -9999 -9999 -9999 -9999 -9999 -9999 -9999 -9999 -9999 -9999 -9999 -9999 -9999 -9999 -9999 -9999 -9999 -9999 -9999 -9999 -9999 -9999 -9999 -9999 -9999 -9999 -9999 -9999 -9999 -9999 -9999 -9999 -9999 -9999 -9999 -9999 -9999 -9999 -9999 -9999 -9999 -9999 -9999 -9999 -9999 -9999 -9999 -9999 16.48 60.98 82.36 118.99 135.98 140.8 202.13 216.94 241.85 322.31 309.36 396.34 350.05 418.49 379.44 445.92 456.06 447.47 447 568.73 647.42 869.36 916.98 751.25 870.19 1059.37 1128.27 1207.43 1019.87 1167.83 1390.94 1509.99 1621.36 1745.7 1740.11 1727.37 1660.59 1671.59 1444.91 1056.76 1204.63 1362.12 1735.92 1925.19 2323.14 2262.24 2394.76 2429.31 1560.5 961.46 731.37 811.75 952.26 1067.74 1157.09 1264.9 1312.87 1296.82 1266.06 1235.24 1199.2 1169.09 1152.35 1138.05 1122.64 1112.34 1090.93 1120.46 1117.94 1112.72 1108.38 1112.35 1110.14 1111.37 1106.1 1101.6 1105.9 1109.77 1099.48 1108.93 1102.24 1098.78 1074.76 1091.97 1095.79 1095.71 1096.25 1096.03 1097.63 1223.43 1226 1097.73 1104.01 1161.49 1194.03 1198.26 1203.4 1216.83 1247.1 1249.49 1257.75 1265.35 1299.28 1390.06 1376.5 1388.8 1436.97 1434.26 1310.24 1268.82 1332.06 1334.15 1294.1 1321.19 1331.47 1252.36 1045.6 988.97 963.83 952.39 969.64 934.79 892.29 868.84 854.35 854.46 868.36 868.41 863.02 858.8 852.16 846.16 831.66 825.95 820.41 799.41 801.44 783.83 762.24 750.43 731.96 702.13 669.3 645.13 619.44 601.09 568.17 533.88 511.73 474.4 434.08 400.87 357.96 328.76 305.53 290.34 262.96 243.6 232.08 193.83 161.55 146.52 111.84 76.86 68.59 44.41 29.68 45.5 64.92 73.16 74.27 72.67 69.87 65.12 60.75 56.85 52.68 52.7 51.89 53.35 57.07 56.17 54.57 48.89 45.42 41.1 37.41 34.56 32.42 30.16 28.12 24.96 21.86 19.14 17.39 16.46 15.74 16.27 16.79 18.32 27.91 35.64 54.22 77.24 94.54 129.94 140.41 146.03 139.46 158.18 211.86 289.74 389.7 375.42 333.05 254.64 142.58 92.76 53.43 32.24 17.52 20.53 -9999 -9999 -9999 -9999 -9999 -9999 -9999 -9999 -9999 -9999 -9999 -9999 -9999 -9999 -9999 -9999 -9999 -9999 -9999 -9999
-9999 -9999 -9999 -9999 -9999 -9999 -9999 -9999 -9999 -9999 -9999 -9999 -9999 -9999 -9999 -9999 -9999 -9999 -9999 -9999 -9999 -9999 -9999 -9999 -9999 -9999 -9999 -9999 -9999 -9999 -9999 -9999 -9999 -9999 -9999 -9999 -9999 -9999 -9999 -9999 -9999 -9999 -9999 -9999 -9999 -9999 -9999 -9999 -9999 -9999 -9999 -9999 -9999 -9999 -9999 -9999 -9999 -9999 -9999 -9999 -9999 -9999 -9999 -9999 -9999 -9999 -9999 -9999 -9999 -9999 -9999 -9999 -9999 -9999 -9999 -9999 -9999 -9999 -9999 -9999 -9999 -9999 -9999 -9999 -9999 -9999 -9999 -9999 -9999 -9999 -9999 -9999 -9999 -9999 -9999 -9999 -9999 -9999 -9999 -9999 -9999 -9999 -9999 -9999 -9999 -9999 -9999 -9999 -9999 -9999 -9999 -9999 -9999 -9999 -9999 -9999 -9999 -9999 -9999 -9999 -9999 -9999 -9999 -9999 -9999 -9999 -9999 -9999 -9999 -9999 -9999 -9999 -9999 -9999 -9999 -9999 -9999 -9999 -9999 -9999 -9999 -9999 -9999 -9999 -9999 -9999 -9999 -9999 -9999 -9999 -9999 -9999 -9999 -9999 -9999 -9999 30.43 67.73 103.03 132.04 150.83 175.1 175.78 197.8 206.49 248.52 268.56 324.54 387.81 390.46 421.28 495.21 515.8 621.62 685.1 523.4 476.42 641.49 866.5 1001.88 1043.15 1017.86 859.26 1073.29 1000.5 931.24 961.65 1062.13 1218.17 1370.58 1723.78 1837.18 1777.22 1638.12 1600.39 1549.65 1589.3 1893.37 1600.49 1419.59 1588.94 1979.04 2371.8 2254.06 1800.95 1504.35 1132.98 835.34 771.83 885.04 1032.74 1140.27 1242.93 1316.68 1363.98 1327.08 1294.79 1272.38 1229.13 1196.35 1186.86 1166 1141.28 1138.25 1119.2 1145.36 1145.63 1137.44 1132.45 1135.45 1136.31 1133.55 1126.32 1120.64 1120.69 1121.96 1120.66 1118.12 1115.25 1114.31 1105.74 1107.88 1158.19 1177.29 1119.54 1102.99 1105.3 1125.55 1126.79 1115.32 1146.76 1178.65 1204.92 1219.52 1245.3 1260.98 1266.31 1254.53 1260 1281.68 1332.31 1347.35 1314.57 1297.05 1314.99 1305.88 1261.08 1231.95 1329.58 1235.06 1260.77 1342.92 1161.09 1043.83 988.22 948.25 940.29 910.69 941.03 928.15 913.61 885.75 896.94 896.83 888.77 884.74 868.31 852.32 850.02 834.08 821.39 810.06 801.68 793.13 775.53 766.84 761.91 726.7 708.41 701.86 676.34 634.6 607.67 590.43 554.91 527.19 496.78 467.18 431.06 397.62 360.74 328.06 287 249.05 215.3 216.26 229.04 193.28 164.79 135.89 110.24 76.47 65.57 51.46 51.95 54.73 71.22 78.49 83.36 82.68 82.67 80.39 76.1 68.97 65.22 64.74 64.91 65.57 66.16 63.11 59.82 54.31 50.06 45.4 42.62 40.29 37.6 34.37 32.43 29.62 26.14 22.47 19.28 19.06 17.45 18.57 22.54 22.26 31.09 42.35 67.55 87.82 87.33 102.13 106.35 117.86 136.04 164.33 206.55 284.9 364.03 445.18 485.9 464.67 239.75 155.97 105.03 -9999 -9999 -9999 -9999 -9999 -9999 -9999 -9999 -9999 -9999 -9999 -9999 -9999 -9999 -9999 -9999 -9999 -9999 -9999 -9999 -9999 -9999 -9999
-9999 -9999 -9999 -9999 -9999 -9999 -9999 -9999 -9999 -9999 -9999 -9999 -9999 -9999 -9999 -9999 -9999 -9999 -9999 -9999 -9999 -9999 -9999 -9999 -9999 -9999 -9999 -9999 -9999 -9999 -9999 -9999 -9999 -9999 -9999 -9999 -9999 -9999 -9999 -9999 -9999 -9999 -9999 -9999 -9999 -9999 -9999 -9999 -9999 -9999 -9999 -9999 -9999 -9999 -9999 -9999 -9999 -9999 -9999 -9999 -9999 -9999 -9999 -9999 -9999 -9999 -9999 -9999 -9999 -9999 -9999 -9999 -9999 -9999 -9999 -9999 -9999 -9999 -9999 -9999 -9999 -9999 -9999 -9999 -9999 -9999 -9999 -9999 -9999 -9999 -9999 -9999 -9999 -9999 -9999 -9999 -9999 -9999 -9999 -9999 -9999 -9999 -9999 -9999 -9999 -9999 -9999 -9999 -9999 -9999 -9999 -9999 -9999 -9999 -9999 -9999 -9999 -9999 -9999 -9999 -9999 -9999 -9999 -9999 -9999 -9999 -9999 -9999 -9999 -9999 -9999 -9999 -9999 -9999 -9999 -9999 -9999 -9999 -9999 -9999 -9999 -9999 -9999 -9999 -9999 -9999 -9999 -9999 -9999 -9999 -9999 -9999 6.43 24.45 51.39 81.94 121.63 153.62 172.1 180.77 190.17 195.26 204.97 226.74 250.24 260.66 290.36 328.71 421.72 417.31 475.44 584.86 622.56 740.36 639.94 582.54 750.84 745.54 866.94 961.81 1020.6 1127.77 1193.96 972.15 870 867.8 1009.53 1103.8 1354.06 1822.48 1910.45 1783.44 1655.35 1546.66 1722.76 1923.04 2072.42 1773.85 1602.91 1539.55 1662.35 1907.88 2059.76 1954.46 1343.29 1093.67 916.23 788.75 832.83 961.69 1084.06 1232.16 1310.02 1376.27 1387.78 1361.25 1349.4 1295.42 1255.28 1268.44 1231.12 1189.61 1178.23 1164.72 1157.18 1180.25 1181.23 1169.8 1162.23 1159.16 1157.61 1154.02 1148.18 1143.38 1136.43 1136.27 1135.99 1133.48 1125.18 1122.36 1133.33 1218.79 1188.13 1144.46 1126.11 1118.78 1112.65 1123.74 1174 1166.96 1180.46 1183.86 1206.72 1246.71 1261.97 1274.26 1286.97 1313.36 1319.51 1350.37 1312.89 1284.02 1248.43 1190.36 1243.89 1217.59 1159.83 1233.2 1246.82 1127.06 1111.82 1098.1 1045.09 993.15 975.05 939.2 905.84 904.82 907.52 904.05 908.88 900.78 883.17 872.43 872.86 859.12 848.97 836.88 823.61 817.89 806.94 793.56 785.15 777.63 766.03 742.09 728.71 694.86 660.33 654.51 655.68 630.79 584.06 560.32 548.74 520.29 494.23 458.45 423.37 398.71 362.09 323.69 273.79 221.41 178.19 160.6 175.47 164.85 168.43 171 121.83 76.15 70.41 76.09 58.29 59.24 75.24 83.61 87.69 91.43 91.64 91.61 88.9 83.15 76.12 77.27 76.84 76.94 75.1 72.22 68.21 60.8 59.44 53.87 49.1 45.68 43.13 39.95 36.6 33.56 30.98 27.99 25.86 25.67 22.67 25.23 42.44 41.52 44.77 50.39 71.9 81.83 88.19 92.58 113.29 133.43 154.66 178.19 203.52 265.52 350.78 421.36 451.67 509.09 -9999 -9999 -9999 -9999 -9999 -9999 -9999 -9999 -9999 -9999 -9999 -9999 -9999 -9999 -9999 -9999 -9999 -9999 -9999 -9999 -9999 -9999 -9999 -9999 -9999 -9999
-9999 -9999 -9999 -9999 -9999 -9999 -9999 -9999 -9999 -9999 -9999 -9999 -9999 -9999 -9999 -9999 -9999 -9999 -9999 -9999 -9999 -9999 -9999 -9999 -9999 -9999 -9999 -9999 -9999 -9999 -9999 -9999 -9999 -9999 -9999 -9999 -9999 -9999 -9999 -9999 -9999 -9999 -9999 -9999 -9999 -9999 -9999 -9999 -9999 -9999 -9999 -9999 -9999 -9999 -9999 -9999 -9999 -9999 -9999 -9999 -9999 -9999 -9999 -9999 -9999 -9999 -9999 -9999 -9999 -9999 -9999 -9999 -9999 -9999 -9999 -9999 -9999 -9999 -9999 -9999 -9999 -9999 -9999 -9999 -9999 -9999 -9999 -9999 -9999 -9999 -9999 -9999 -9999 -9999 -9999 -9999 -9999 -9999 -9999 -9999 -9999 -9999 -9999 -9999 -9999 -9999 -9999 -9999 -9999 -9999 -9999 -9999 -9999 -9999 -9999 -9999 -9999 -9999 -9999 -9999 -9999 -9999 -9999 -9999 -9999 -9999 -9999 -9999 -9999 -9999 -9999 -9999 -9999 -9999 -9999 -9999 -9999 -9999 -9999 -9999 -9999 -9999 -9999 -9999 -9999 -9999 -9999 -9999 -9999 -9999 -9999 15.84 44.2 103.53 136.27 151.72 174.94 198.04 211.21 204.48 207.69 216.49 231.29 253.21 288.44 367.58 335.99 440.04 391.57 463.27 568.59 666.32 721.66 751.49 703.81 618.06 792.17 778.12 901.25 867.72 1017.31 1088.61 1113.01 1084.96 987.68 967.36 1021.98 1283.82 1691.09 1884.72 1900.09 1749.53 1748.5 1906.05 2068.3 1956.79 1838.07 1705.29 1668.2 1605.76 1660.75 1705.82 1859.19 1675.86 1083.72 924.07 842.38 803.25 879.82 1007.34 1157.3 1305.89 1350.71 1384.83 1417.72 1426.77 1371.9 1313.2 1289.47 1266.7 1240.58 1218.2 1201.47 1193.71 1195.83 1199.68 1213.34 1215.47 1202.67 1190.45 1181.17 1179.06 1177.47 1172.8 1157.13 1151.61 1153.69 1149.62 1150.28 1174.04 1249.18 1228.65 1159.54 1162.74 1158.42 1156.86 1143.91 1170.28 1171.57 1179.42 1253.55 1250.73 1214.18 1243.85 1272.1 1248.98 1283.87 1356.03 1262.88 1249.64 1208.86 1285.9 1223.74 1153.49 1096.19 1129.29 1194.42 1108.89 1084.07 1032.02 1022.05 993.44 984.3 949.35 917.98 877.57 876.25 882.98 891.42 903.19 893.37 878.52 861.39 845.46 839.03 832.76 825.25 817.43 802.92 792.03 781.12 774.59 779.85 774.75 753.35 735.93 706.2 697.53 689.19 652.2 618.25 605.46 581.65 528.55 506.34 496.73 471.32 444.71 414.77 383.13 353.39 324.51 286.77 230.3 170.07 119.4 113.95 123 174.16 164.29 124.86 78.67 141.87 86.48 55.72 62.37 77.02 87.95 93.52 95.97 95.94 94.32 94.39 92.83 88.8 85.31 85.1 83.57 82.78 80.22 75.63 70.33 67.23 63.6 59.34 56.56 49.31 45.84 43.09 40.07 37.21 35.14 33.36 32.33 35.88 40.55 52.24 55.9 56.31 64.86 79.61 89.36 93.54 102.7 121.89 139.58 162.66 190.45 209.15 253.27 325.72 383.75 -9999 -9999 -9999 -9999 -9999 -9999 -9999 -9999 -9999 -9999 -9999 -9999 -9999 -9999 -9999 -9999 -9999 -9999 -9999 -9999 -9999 -9999 -9999 -9999 -9999 -9999 -9999 -9999
-9999 -9999 -9999 -9999 -9999 -9999 -9999 -9999 -9999 -9999 -9999 -9999 -9999 -9999 -9999 -9999 -9999 -9999 -9999 -9999 -9999 -9999 -9999 -9999 -9999 -9999 -9999 -9999 -9999 -9999 -9999 -9999 -9999 -9999 -9999 -9999 -9999 -9999 -9999 -9999 -9999 -9999 -9999 -9999 -9999 -9999 -9999 -9999 -9999 -9999 -9999 -9999 -9999 -9999 -9999 -9999 -9999 -9999 -9999 -9999 -9999 -9999 -9999 -9999 -9999 -9999 -9999 -9999 -9999 -9999 -9999 -9999 -9999 -9999 -9999 -9999 -9999 -9999 -9999 -9999 -9999 -9999 -9999 -9999 -9999 -9999 -9999 -9999 -9999 -9999 -9999 -9999 -9999 -9999 -9999 -9999 -9999 -9999 -9999 -9999 -9999 -9999 -9999 -9999 -9999 -9999 -9999 -9999 -9999 -9999 -9999 -9999 -9999 -9999 -9999 -9999 -9999 -9999 -9999 -9999 -9999 -9999 -9999 -9999 -9999 -9999 -9999 -9999 -9999 -9999 -9999 -9999 -9999 -9999 -9999 -9999 -9999 -9999 -9999 -9999 -9999 -9999 -9999 -9999 -9999 -9999 -9999 -9999 -9999 27.98 34.31 80.67 100.63 113.97 130.76 183.12 200.32 215.28 225.89 221.86 222.35 234.19 258.16 301.35 370.47 439.04 460.24 477.79 529.03 691.31 670.96 716.83 785.51 787.3 668.41 631.6 807.06 918.78 1013.52 904.75 1074.67 1179.36 1186.3 1064.23 1114.14 1098.66 1191.67 1624.16 1918.03 1996.75 1895.23 1962.72 2119.21 2262.36 2100.22 1940.68 1691.4 1632.67 1604.91 1482.86 1510.2 1412.35 1373.59 1119.79 950.72 847.01 828.23 855.98 929.46 1068.07 1225.1 1371.11 1447.71 1485.02 1458.62 1459.54 1388.91 1361.39 1338.4 1301.32 1295.92 1260.21 1231.62 1234.47 1238.57 1243.14 1252.4 1264.49 1261.34 1253.88 1224.46 1208.21 1206.74 1205.32 1193.9 1182.97 1179.05 1178.31 1195.67 1205.26 1370.84 1220.4 1195.83 1195.77 1213.33 1214.36 1183.71 1180.95 1172.79 1229.91 1350.8 1204.13 1283.12 1394.13 1336.02 1230.43 1228.98 1209.37 1127.58 1130.24 1240.45 1220.96 1079.42 1087.86 1038.53 1060.45 1062.87 987.64 969.29 977.39 976.03 993.96 946.21 954.35 930.01 850.76 836.38 840.39 847.63 858.31 871.93 855.98 846.25 831.2 814.5 807.51 793.62 786.58 776.7 766.82 767.86 761.06 749.76 731.67 717.04 699.86 687.01 654.35 650.45 631.22 588.02 558.58 552.45 530.29 482.71 482.26 450.14 416.89 381.49 358.59 346.32 324 287.2 219.41 161.28 138.09 162.85 160.7 178.95 165.76 143.48 89.95 87.32 71.26 62.17 66.71 80.89 91.13 95.62 98.31 100.06 98.72 98.48 98.08 95.93 91.23 90.51 90.94 88.21 84.8 83.13 76.43 70.21 67.97 64.62 64.81 59.25 56.69 52.98 51.7 49.61 48.94 48.23 53.8 50.99 53.29 61.13 67.1 78.99 85.14 97.23 109.14 113.18 113.59 128.47 148.75 171.96 197.22 221.94 -9999 -9999 -9999 -9999 -9999 -9999 -9999 -9999 -9999 -9999 -9999 -9999 -9999 -9999 -9999 -9999 -9999 -9999 -9999 -9999 -9999 -9999 -9999 -9999 -9999 -9999 -9999 -9999 -9999 -9999 -9999
-9999 -9999 -9999 -9999 -9999 -9999 -9999 -9999 -9999 -9999 -9999 -9999 -9999 -9999 -9999 -9999 -9999 -9999 -9999 -9999 -9999 -9999 -9999 -9999 -9999 -9999 -9999 -9999 -9999 -9999 -9999 -9999 -9999 -9999 -9999 -9999 -9999 -9999 -9999 -9999 -9999 -9999 -9999 -9999 -9999 -9999 -9999 -9999 -9999 -9999 -9999 -9999 -9999 -9999 -9999 -9999 -9999 -9999 -9999 -9999 -9999 -9999 -9999 -9999 -9999 -9999 -9999 -9999 -9999 -9999 -9999 -9999 -9999 -9999 -9999 -9999 -9999 -9999 -9999 -9999 -9999 -9999 -9999 -9999 -9999 -9999 -9999 -9999 -9999 -9999 -9999 -9999 -9999 -9999 -9999 -9999 -9999 -9999 -9999 -9999 -9999 -9999 -9999 -9999 -9999 -9999 -9999 -9999 -9999 -9999 -9999 -9999 -9999 -9999 -9999 -9999 -9999 -9999 -9999 -9999 -9999 -9999 -9999 -9999 -9999 -9999 -9999 -9999 -9999 -9999 -9999 -9999 -9999 -9999 -9999 -9999 -9999 -9999 -9999 -9999 -9999 -9999 -9999 -9999 -9999 -9999 -9999 -9999 -9999 45.8 57.92 104.06 135.31 171.84 121.61 176.19 208.55 237.03 249.7 238.67 240.03 274.88 338.79 425.41 501.61 527.53 551.81 555.46 611.1 742.27 773.96 807.2 798.65 668.56 656.51 691.54 713.2 765.07 865.58 891.49 1102.13 1279.47 1105.67 1086.03 1171.09 1173.04 1417.79 1650.53 1748.88 1921.05 2043.62 2016.43 2091.93 2071.99 1879.49 1711.98 1594.27 1613.96 1571.03 1412.6 1289 1201.82 1153.16 996 900.52 862.87 892.36 929.93 967.87 1080.55 1250.91 1422.83 1548.01 1581.47 1542.24 1499.01 1425.02 1458.81 1449.48 1364.59 1353.28 1295.07 1264.94 1276.89 1296.11 1314.12 1315.06 1340.57 1340.85 1313.34 1251.99 1234.79 1238.71 1239.94 1237.66 1223.22 1211.41 1217.05 1235.67 1365.82 1298.19 1235.84 1238.37 1239.7 1231.67 1232.49 1212.66 1241.24 1214.29 1201.06 1159.68 1182.76 1268.1 1365.46 1253.59 1219.94 1147.63 1145.79 1092.79 1118.56 1296.03 1062.25 1013.99 1061.39 1080.53 993.34 936.85 890.4 915.37 962.24 960.44 928.95 877.75 859.45 878.88 847.59 801.13 812.96 833.7 823.75 811.01 805.67 816.86 809.08 793.18 782.62 771.17 758.85 749.29 745.55 744.89 749.55 756.3 765.86 747.91 708.53 668.37 629.02 607.38 616.6 570.1 538.76 505.95 499.14 468.72 470.54 432.67 399.43 366.16 362.45 331.42 313.31 274.69 226.04 191.71 147.75 124.94 139.55 136.73 140.75 133.16 107.85 84.73 75.93 68.67 70.4 87.15 97.6 100.27 102.77 102.48 103.64 104.11 102.33 100.15 98.02 96.03 95.99 94.03 90.82 86.13 82.57 78.11 73.54 71.34 69.63 68.78 69.1 68.53 68.15 68.1 71.1 73.86 74.48 70.16 69.06 73.86 80.69 99.43 103.44 111.69 136.67 142.7 147.5 150.77 169.87 190.66 -9999 -9999 -9999 -9999 -9999 -9999 -9999 -9999 -9999 -9999 -9999 -9999 -9999 -9999 -9999 -9999 -9999 -9999 -9999 -9999 -9999 -9999 -9999 -9999 -9999 -9999 -9999 -9999 -9999 -9999 -9999 -9999 -9999
-9999 -9999 -9999 -9999 -9999 -9999 -9999 -9999 -9999 -9999 -9999 -9999 -9999 -9999 -9999 -9999 -9999 -9999 -9999 -9999 -9999 -9999 -9999 -9999 -9999 -9999 -9999 -9999 -9999 -9999 -9999 -9999 -9999 -9999 -9999 -9999 -9999 -9999 -9999 -9999 -9999 -9999 -9999 -9999 -9999 -9999 -9999 -9999 -9999 -9999 -9999 -9999 -9999 -9999 -9999 29.27 -9999 -9999 -9999 -9999 -9999 -9999 -9999 -9999 -9999 -9999 -9999 -9999 -9999 -9999 -9999 -9999 -9999 -9999 -9999 -9999 -9999 -9999 -9999 -9999 -9999 -9999 -9999 -9999 -9999 -9999 -9999 -9999 -9999 -9999 -9999 -9999 -9999 -9999 -9999 -9999 -9999 -9999 -9999 -9999 -9999 -9999 -9999 -9999 -9999 -9999 -9999 -9999 -9999 -9999 -9999 -9999 -9999 -9999 -9999 -9999 -9999 -9999 -9999 -9999 -9999 -9999 -9999 -9999 -9999 -9999 -9999 -9999 -9999 -9999 -9999 -9999 -9999 -9999 -9999 -9999 -9999 -9999 -9999 -9999 -9999 -9999 -9999 -9999 -9999 -9999 -9999 -9999 65.92 77.45 76.62 110.39 153.93 166.3 138.31 152.13 226.16 289.16 319.81 323.75 345.27 383.13 489.17 554.95 600.49 662.71 678.03 687.23 664.83 703.66 788.2 844.55 824.02 751.69 808.11 815.31 699.46 672.29 730.75 971.78 1150.7 1046.68 934.18 1043.86 1044.86 1140.95 1403.56 1520.11 1748.69 1951.91 2094.43 2173.97 2039.77 1747.56 1647.59 1545.98 1550.09 1611.78 1596.3 1569.94 1275.22 1126.61 1027.76 923.51 897.41 926.62 962.97 1004.91 1073.76 1141.6 1269.65 1449.65 1530.25 1569.35 1585.83 1536.91 1499.4 1583.12 1487.69 1470.88 1389.74 1297.19 1319.74 1338.08 1372.62 1373.78 1422.22 1462.42 1401.35 1314.27 1273.53 1276.18 1276.11 1279.23 1279.66 1261.26 1254.11 1246.57 1293.14 1335.94 1279.62 1274.58 1278.42 1290.51 1313.21 1254.82 1298.75 1375.95 1215.14 1217.51 1133.54 1121.15 1134.8 1146.27 1272.87 1242.54 1127.38 1133.58 1019.49 1052.72 992.94 985.56 976.53 967.22 974.36 908.16 846.93 830.27 838.35 891.46 874.56 863.89 846.51 852.01 809.08 816.62 812.88 798.25 804.65 815.19 832.65 813.58 783.67 786.24 775.47 756.9 748.95 739.59 732.1 743.99 759.57 752.77 773.45 756.15 722.66 683.93 634.91 584.07 557.09 585.55 571.29 525.6 485.34 457.84 461.43 448.32 421.73 376.45 363.71 342.8 296.26 252.53 257.82 237.88 206.72 180.13 164.72 153.06 114.01 131.82 138.22 93.71 85.9 78.87 75.47 87.93 96.54 100.53 105.19 106.95 107.47 107.72 106.86 105.26 104.42 101.07 100.69 99.98 97.43 95.5 92.41 87.84 83.01 79.3 77.47 77.63 79.92 80.15 80.19 81.19 84.41 87.43 87.41 86.6 86.6 90.59 96.21 102.59 109.5 115.96 136.96 165.2 157.33 177.03 -9999 -9999 -9999 -9999 -9999 -9999 -9999 -9999 -9999 -9999 -9999 -9999 -9999 -9999 -9999 -9999 -9999 -9999 -9999 -9999 -9999 -9999 -9999 -9999 -9999 -9999 -9999 -9999 -9999 -9999 -9999 -9999 -9999 -9999 -9999 -9999
-9999 -9999 -9999 -9999 -9999 -9999 -9999 -9999 -9999 -9999 -9999 -9999 -9999 -9999 -9999 -9999 -9999 -9999 -9999 -9999 -9999 -9999 -9999 -9999 -9999 -9999 -9999 -9999 -9999 -9999 -9999 -9999 -9999 -9999 -9999 -9999 -9999 -9999 -9999 -9999 -9999 -9999 -9999 -9999 -9999 -9999 -9999 -9999 -9999 -9999 -9999 -9999 -9999 -9999 -9999 -9999 -9999 -9999 -9999 -9999 -9999 -9999 -9999 -9999 -9999 -9999 -9999 -9999 -9999 -9999 -9999 -9999 -9999 -9999 -9999 -9999 -9999 -9999 -9999 -9999 -9999 -9999 -9999 -9999 -9999 -9999 -9999 -9999 -9999 -9999 -9999 -9999 -9999 -9999 -9999 -9999 -9999 -9999 -9999 -9999 -9999 -9999 -9999 -9999 -9999 -9999 -9999 -9999 -9999 -9999 -9999 -9999 -9999 -9999 -9999 -9999 -9999 -9999 -9999 -9999 -9999 -9999 -9999 -9999 -9999 -9999 -9999 -9999 -9999 -9999 -9999 -9999 -9999 -9999 -9999 -9999 -9999 -9999 -9999 -9999 -9999 -9999 -9999 -9999 -9999 -9999 17.07 63.33 85.63 111.55 108.64 129.17 135.16 132.28 151.82 165.98 252.18 306.33 349.92 409.52 430.85 493.77 531.73 603.04 660.5 714.28 743.66 768.85 733.41 745.64 774.53 804.12 856.47 893.63 938.76 872.05 735.83 777.42 805.25 858.89 929.24 914.37 894.4 926.9 1001.85 1353.79 1594.91 1717.24 2003.28 1972.19 2055.93 1880.01 1623.74 1515.28 1476.24 1452.96 1492.98 1586.02 1535.47 1290.07 1174.2 1117.52 968.33 942.26 979.32 996.62 1047.89 1077.13 1135.61 1230.38 1327.72 1454.64 1576.01 1640.34 1692.37 1636.4 1556.75 1480.1 1513.79 1456.96 1336.39 1306.77 1377.53 1434.16 1455.82 1443.78 1462.81 1432.73 1385.09 1328.06 1315.59 1325.87 1318.51 1317.95 1305.36 1295.89 1284.02 1287.67 1338.48 1332.71 1311.93 1323.83 1348.08 1531.39 1362.21 1296.95 1595.75 1232.39 1142.11 1285.74 1096.22 1064.52 1086.13 1136.7 1263.96 1144.22 1025.29 1065.17 971.72 927.04 933.57 937.28 937.92 912.6 880.69 850.86 814.09 784.55 771.71 785.04 793.64 818.97 825.99 832.92 817.43 778.66 807.41 784.81 781.45 774.81 803.15 797.77 790.09 759.49 755.87 741.94 728.29 723.4 722 739.18 751.97 760.55 778.73 751.11 705.32 668.2 640.72 604.46 556.39 540.76 550.95 508.18 459 420.74 421.86 427.95 411.89 380.94 354.02 319.08 252.56 193.25 219.96 204.84 187.77 188.91 169.24 154.39 97.43 114.72 98.56 96.7 88.58 82.75 87.8 91.19 98.87 98.99 107.73 109.92 110.85 110.51 110.98 109.35 107.81 105.33 103.28 102.29 100.98 99.05 96.92 93.22 89.38 85.83 85.35 86.18 88.93 88.8 88.83 92.69 98.71 100.56 101.2 102.16 106.21 110.49 115.39 119.63 124 132.23 144.18 -9999 -9999 -9999 -9999 -9999 -9999 -9999 -9999 -9999 -9999 -9999 -9999 -9999 -9999 -9999 -9999 -9999 -9999 -9999 -9999 -9999 -9999 -9999 -9999 -9999 -9999 -9999 -9999 -9999 -9999 -9999 -9999 -9999 -9999 -9999 -9999 -9999 -9999 -9999
-9999 -9999 -9999 -9999 -9999 -9999 -9999 -9999 -9999 -9999 -9999 -9999 -9999 -9999 -9999 -9999 -9999 -9999 -9999 -9999 -9999 -9999 -9999 -9999 -9999 -9999 -9999 -9999 -9999 -9999 -9999 -9999 -9999 -9999 -9999 -9999 -9999 -9999 -9999 -9999 -9999 -9999 -9999 -9999 -9999 -9999 -9999 -9999 -9999 -9999 -9999 -9999 -9999 -9999 -9999 -9999 -9999 -9999 -9999 -9999 -9999 -9999 -9999 -9999 -9999 -9999 -9999 -9999 -9999 -9999 -9999 -9999 -9999 -9999 -9999 -9999 -9999 -9999 -9999 -9999 -9999 -9999 -9999 -9999 -9999 -9999 -9999 -9999 -9999 -9999 -9999 -9999 -9999 -9999 -9999 -9999 -9999 -9999 -9999 -9999 -9999 -9999 -9999 -9999 -9999 -9999 -9999 -9999 -9999 -9999 -9999 -9999 -9999 -9999 -9999 -9999 -9999 -9999 -9999 -9999 -9999 -9999 -9999 -9999 -9999 -9999 -9999 -9999 -9999 -9999 -9999 -9999 -9999 -9999 -9999 -9999 -9999 -9999 -9999 -9999 -9999 -9999 -9999 -9999 -9999 20.56 99.1 97.42 121.75 132.44 135.26 142.71 155.5 146.16 173.54 168 263.72 325.41 357.41 394.91 482.46 548.15 583.18 622.37 671.86 694.12 729.76 764.79 778.86 790.17 797.89 784.89 827.37 825.51 834.41 861.09 869.53 884.81 844.72 767.42 828.85 865.17 812.85 880.58 924.74 1184.36 1387.36 1558.51 1666.63 1987.7 1861.67 1633.75 1496.54 1424.15 1414.61 1367.47 1317.88 1425.5 1355.34 1117.62 1033.6 1070.23 1024.05 1036.63 1071.12 1087.34 1142.91 1185.54 1242.48 1363.43 1491.5 1522.57 1560.13 1625.99 1706.71 1572.48 1452.13 1444.87 1447.56 1410.31 1314.78 1314.45 1437.59 1532.77 1510.7 1472.48 1393.7 1357.65 1350.95 1351.69 1284.22 1257.59 1224.19 1231.17 1263.42 1335.17 1350.04 1379.18 1377.61 1365.64 1359.28 1336.41 1474.73 1501.73 1218.34 1441.2 1501.9 1107.59 1123 1160.92 1184.19 1181.04 1068.44 1265.8 1058.32 945.56 896.83 892.74 903.65 914.89 929.23 912.39 896.02 889.47 866.97 827.72 797.23 777.57 770.03 768.85 780.03 808.25 815.09 811.86 811.19 797.47 790.09 776.33 752.97 750.14 766.03 763.98 764.5 755.49 729.49 732.68 721.15 718.89 721.74 740.68 758.1 758.58 768.95 737.37 697.05 648.26 591.04 586.17 543.61 510.59 524.33 489.27 443.78 394.08 368.47 402.11 391.32 365.4 338.41 316.57 293.21 190.38 182.57 200.28 186.03 169.24 165.87 131.32 102.22 99.69 98.64 99.83 95.81 94.18 95.49 99.13 103.27 106.87 108.72 112.34 113.91 114.33 113.68 114.41 112.35 108.3 105.74 104.93 103.85 103.63 101.11 98.87 95.9 93.23 94.9 95.76 95.32 96.45 98.06 103.22 107.55 109.71 113 117.29 121.32 126.15 130.57 134.02 141.22 -9999 -9999 -9999 -9999 -9999 -9999 -9999 -9999 -9999 -9999 -9999 -9999 -9999 -9999 -9999 -9999 -9999 -9999 -9999 -9999 -9999 -9999 -9999 -9999 -9999 -9999 -9999 -9999 -9999 -9999 -9999 -9999 -9999 -9999 -9999 -9999 -9999 -9999 -9999 -9999 -9999
-9999 -9999 -9999 -9999 -9999 -9999 -9999 -9999 -9999 -9999 -9999 -9999 -9999 -9999 -9999 -9999 -9999 -9999 -9999 -9999 -9999 -9999 -9999 -9999 -9999 -9999 -9999 -9999 -9999 -9999 -9999 -9999 -9999 -9999 -9999 -9999 -9999 -9999 -9999 -9999 -9999 -9999 -9999 -9999 -9999 706.14 919.18 585.35 821.01 1714.1 48.68 -9999 -9999 -9999 -9999 -9999 -9999 -9999 -9999 -9999 -9999 -9999 -9999 -9999 -9999 -9999 -9999 -9999 -9999 -9999 -9999 -9999 -9999 -9999 -9999 -9999 -9999 -9999 -9999 -9999 -9999 -9999 -9999 -9999 -9999 -9999 -9999 -9999 -9999 -9999 -9999 -9999 -9999 -9999 -9999 -9999 -9999 -9999 -9999 -9999 -9999 -9999 -9999 -9999 -9999 -9999 -9999 -9999 -9999 -9999 -9999 -9999 -9999 -9999 -9999 -9999 -9999 -9999 -9999 -9999 -9999 -9999 -9999 -9999 -9999 -9999 -9999 -9999 -9999 -9999 -9999 -9999 -9999 -9999 -9999 -9999 -9999 -9999 -9999 -9999 -9999 -9999 -9999 -9999 38.52 107.28 104.81 115.96 136.27 148.16 148.59 159.05 175.49 172.23 191.04 222.75 218.84 308.1 358.2 413.8 482.93 517.97 528.34 557.51 608 631.62 680.37 719.04 698.4 679.7 698.17 711.84 710.34 695.23 702.83 719.07 736.77 703.83 758.86 767.49 832.23 818.72 762.2 842.52 913.14 984.04 1284.34 1343.08 1610.66 1769.03 1694.88 1583.44 1488.66 1473.69 1407.89 1347.93 1359.41 1392.7 1148.38 1112.52 1117 1168.82 1156.38 1158.56 1182.43 1208.81 1262.75 1362.97 1442.97 1480.5 1570.91 1611.14 1581.21 1568.35 1488.81 1342.46 1343.82 1337.34 1313.88 1314.55 1281.96 1303.56 1372.91 1446.79 1435.57 1389.65 1340.34 1316.76 1289.06 1248.41 1196.27 1170.43 1199.41 1233.29 1329.55 1443.6 1525.82 1405.59 1349.7 1380.16 1328.19 1366.33 1363.11 1299.54 1162.55 1237.14 1082.24 1058.27 1146.84 1185.04 1335.31 1106.77 1192.98 1159.26 936.42 866.41 886.7 943.47 936.66 903.52 916.24 906.35 878.58 858.27 871.27 840.45 827.69 799.33 759.29 762.11 778.15 784.47 785.94 791.8 786.45 767.01 756.81 751.08 730.19 731.42 729.78 730.48 734.43 729.05 714.83 717.4 712.42 716.29 725.33 738.62 747.08 752.47 737.51 716.86 671.53 625.14 596.59 543.66 510.18 481.18 501.61 459.73 408.43 369.72 347.68 337.08 339.47 335.43 324.46 305.87 290.41 233.29 201.79 197.75 186.38 177.78 139.23 110.49 95.85 96.53 99.71 103.11 106.14 102.18 100.92 104.02 109.52 108.29 111.82 114.53 116.78 117.11 117.21 117.26 115.53 112.72 109.3 106.82 106.32 105.11 105 106.13 102.97 98.84 101.99 102.96 102.87 104.46 108.5 113.61 118.67 121.29 124.39 127.15 132.73 138.01 -9999 -9999 -9999 -9999 -9999 -9999 -9999 -9999 -9999 -9999 -9999 -9999 -9999 -9999 -9999 -9999 -9999 -9999 -9999 -9999 -9999 -9999 -9999 -9999 -9999 -9999 -9999 -9999 -9999 -9999 -9999 -9999 -9999 -9999 -9999 -9999 -9999 -9999 -9999 -9999 -9999 -9999 -9999 -9999
-9999 -9999 -9999 -9999 -9999 -9999 -9999 -9999 -9999 -9999 -9999 -9999 -9999 -9999 -9999 -9999 -9999 -9999 -9999 -9999 -9999 -9999 -9999 -9999 -9999 -9999 -9999 -9999 -9999 -9999 -9999 -9999 -9999 -9999 -9999 -9999 -9999 -9999 -9999 -9999 -9999 -9999 -9999 -9999 -9999 -9999 460.32 758.03 1021 931.19 291.82 -9999 -9999 -9999 -9999 -9999 -9999 -9999 -9999 -9999 -9999 -9999 -9999 -9999 -9999 -9999 -9999 -9999 -9999 -9999 -9999 -9999 -9999 -9999 -9999 -9999 -9999 -9999 -9999 -9999 -9999 -9999 -9999 -9999 -9999 -9999 -9999 -9999 -9999 -9999 -9999 -9999 -9999 -9999 -9999 -9999 -9999 -9999 -9999 -9999 -9999 -9999 -9999 -9999 -9999 -9999 -9999 -9999 -9999 -9999 -9999 -9999 -9999 -9999 -9999 -9999 -9999 -9999 -9999 -9999 -9999 -9999 -9999 -9999 -9999 -9999 -9999 -9999 -9999 -9999 -9999 -9999 -9999 -9999 -9999 -9999 -9999 -9999 -9999 -9999 -9999 -9999 -9999 55.17 113.12 108.79 113.88 132.89 157.52 159.19 165.51 175.21 190.67 198.4 260.47 322.37 271.76 266.81 300.15 333.66 424.31 461.97 501.57 526.78 571.59 602.58 640.5 662.66 611.64 623.05 609.49 589.56 590.6 586.41 591.53 601.92 611.52 617.38 639.72 648.77 688.9 714.68 906.79 1206.05 1375.67 1443.74 1624.89 1721.03 1724.05 1653.5 1601.35 1547.5 1520.38 1517.09 1449.09 1459.03 1516.18 1399.44 1306.36 1299.93 1310.89 1305.91 1311.62 1305.66 1364.99 1390.14 1421.21 1497.67 1578.48 1608.8 1665.99 1630.49 1456.39 1323.19 1247.49 1270.92 1226.58 1274.48 1297.42 1262.04 1279.23 1310.11 1337.29 1377.45 1432.07 1414.2 1320 1272.55 1296.59 1304.8 1259.57 1233.05 1247.44 1317.16 1438.44 1585.56 1399.9 1316.82 1278.46 1379.76 1356.52 1248.77 1222.33 1155.72 1176.85 1451.03 1237.26 1041.12 1095.26 1191.25 1091.82 908.74 898.21 921.34 864.1 856.37 912.81 912.25 890.69 876.77 877.16 887.91 875.23 833.84 859.29 857.23 841.3 837.72 802.47 754.3 776.19 779.29 767.69 756.16 753.11 740.68 721.36 711.16 698.99 698.59 698.1 697.22 701.38 699.15 697.63 693.22 701.63 718.31 732.18 738.55 724.63 719.66 724.46 690.65 648.08 633.56 609.31 565.62 513.67 469.78 453.45 435.77 385.2 365.86 352.71 330.48 320.85 296.63 283.65 279.8 269.43 249.46 229.39 226.44 201.8 167.1 135.33 108.41 100.78 101.38 104.66 108.26 109.19 109.53 109.86 112.88 109.82 110.74 113.82 116.47 118.01 118.85 119.98 119.78 118.91 116.69 111.87 108.78 106.84 106.36 106.24 106.67 106.38 101.85 104.89 106.87 109.15 111.74 115.29 121.18 124.03 126.17 129.89 135.07 -9999 -9999 -9999 -9999 -9999 -9999 -9999 -9999 -9999 -9999 -9999 -9999 -9999 -9999 -9999 -9999 -9999 -9999 -9999 -9999 -9999 -9999 -9999 -9999 -9999 -9999 -9999 -9999 -9999 -9999 -9999 -9999 -9999 -9999 -9999 -9999 -9999 -9999 -9999 -9999 -9999 -9999 -9999 -9999 -9999 -9999
-9999 -9999 -9999 -9999 -9999 -9999 -9999 -9999 -9999 -9999 -9999 -9999 -9999 -9999 -9999 -9999 -9999 -9999 -9999 -9999 -9999 -9999 -9999 -9999 -9999 -9999 -9999 -9999 -9999 -9999 -9999 -9999 -9999 -9999 -9999 -9999 -9999 -9999 -9999 -9999 -9999 -9999 -9999 -9999 -9999 -9999 -9999 -9999 -9999 -9999 -9999 -9999 -9999 -9999 -9999 -9999 -9999 -9999 -9999 -9999 -9999 -9999 -9999 -9999 -9999 -9999 -9999 -9999 -9999 -9999 -9999 -9999 -9999 -9999 -9999 -9999 -9999 -9999 -9999 -9999 -9999 -9999 -9999 -9999 -9999 -9999 -9999 -9999 -9999 -9999 -9999 -9999 -9999 -9999 -9999 -9999 -9999 -9999 -9999 -9999 -9999 -9999 -9999 -9999 -9999 -9999 -9999 -9999 -9999 -9999 -9999 -9999 -9999 -9999 -9999 -9999 -9999 -9999 -9999 -9999 -9999 -9999 -9999 -9999 -9999 -9999 -9999 -9999 -9999 -9999 -9999 -9999 -9999 -9999 -9999 -9999 -9999 -9999 -9999 -9999 -9999 -9999 74.52 112.93 121.9 125.68 128.51 157.46 173.37 175.85 178.62 193.97 212.9 232.25 302.04 374.98 340.79 263.17 250.49 298.69 409.09 465.65 495.99 511 535.74 555.58 564 538.75 528.31 532.89 517.55 519.67 515.43 515.39 523.81 528.28 526.3 540.78 579.34 673.09 785.24 1245.85 1627.09 1781.41 1846.39 1887.96 1883.72 1725.45 1672.92 1704.92 1710.29 1674.85 1651.98 1700.99 1691.63 1732.42 1792.46 1715.58 1814.98 1943.49 1821.43 1613.35 1664.35 1649.93 1771.52 1766.4 1720.1 1783.75 1751.77 1651.89 1697.72 1469.72 1361.47 1283.55 1215.35 1167.78 1154.51 1221.96 1316.42 1328.02 1325.85 1332.41 1351.84 1360.47 1351.42 1340.32 1301.18 1285.17 1335.76 1283.13 1369.07 1396.3 1285.41 1251.91 1315.15 1331.63 1284.58 1259.68 1252.49 1391.63 1331.51 1280.95 1248.74 1226.83 1551.52 1454.15 1209.63 1016.66 1189.91 1071.54 952.78 906.7 841.36 857.58 841.84 858.53 876.88 878.09 869.61 857.78 856.85 864.95 857.94 816.33 841.6 841.35 826.18 804.27 814 806.7 755.99 769.56 742.68 725.38 712.51 705.86 691.24 673.7 665.32 669.11 668.82 671.16 668.99 673.75 673.55 672.92 670.94 698.52 730.14 711.78 653.69 650.56 675.38 675.2 639.45 598.52 574.18 551.78 501.38 471.4 438.56 409.83 392.15 368.06 358.28 354.09 347.93 328.94 311.02 293.93 279.21 264.12 246.61 222.68 201.83 167.27 150.29 125.51 110.45 120.97 114.7 117.59 117.48 117.42 130.8 112.49 113.58 114.95 115.85 118.96 118.09 120.12 121.32 122.28 121.28 118.23 114.54 109.96 109.02 108.6 108.48 106.84 105.55 104.01 108.68 112.23 113.5 116.21 121.12 126.19 130 -9999 -9999 -9999 -9999 -9999 -9999 -9999 -9999 -9999 -9999 -9999 -9999 -9999 -9999 -9999 -9999 -9999 -9999 -9999 -9999 -9999 -9999 -9999 -9999 -9999 -9999 -9999 -9999 -9999 -9999 -9999 -9999 -9999 -9999 -9999 -9999 -9999 -9999 -9999 -9999 -9999 -9999 -9999 -9999 -9999 -9999 -9999 -9999 -9999
